-2.2017	0.66581	-2.292
-4.91453	2.60361	-0.195421
-2.35608	0.631064	-5.5893
4.75761	-0.410384	-2.24578
-2.21092	0.288068	4.11772
-2.8919	-1.65784	2.00999
2.14104	-0.0115217	0.404147
-3.92362	-0.334619	5.74117
6.59938	0.0268347	0.199816
5.78599	-2.21923	0.339509
-0.750158	-0.456031	-0.70834
3.21011	-0.480941	2.4605
4.18836	3.10502	0.677505
7.10882	1.48713	-0.185226
3.70496	1.90641	-9.70233
3.50187	0.414572	-7.37593
-7.05444	2.7078	2.199
-2.97519	2.22534	4.06562
-2.52754	-2.80672	-0.23461
-4.84645	1.16757	-1.23877
2.68187	-2.93038	5.03973
-1.36531	-0.900912	5.76554
-3.28157	2.66901	-0.401501
-1.77037	1.63806	-2.94621
3.47731	2.03028	-0.309837
4.38413	-2.70695	-0.767226
3.6917	-0.927382	4.41056
-2.58449	2.128	3.0932
2.68891	0.865293	-0.813857
-0.999597	-0.331388	-3.27461
3.17227	-0.79697	3.93823
0.868223	1.8892	-6.62583
4.34052	1.4001	-1.8054
5.2212	-0.187906	2.4107
3.22776	3.75745	-0.946549
4.00622	-1.86917	2.68728
2.46434	-0.944796	2.07111
0.233239	-0.355712	-2.23112
2.31228	2.72245	1.18579
2.39845	0.854375	-2.5682
3.991	-3.67955	-0.231419
7.77064	-3.017	3.32224
4.72424	-1.93887	2.13317
5.2702	3.74564	-0.0449916
-1.5998	1.33312	0.716743
-0.992703	2.01882	-2.76159
-3.14265	-5.93269	5.3866
-1.42208	0.931039	5.04661
-2.09298	2.21431	-1.46124
-5.72599	1.65955	4.93314
2.9813	-1.71424	1.3502
3.30243	3.0496	3.18157
-3.42675	-0.231786	-3.92121
0.288471	-0.593895	-1.22711
2.23818	1.18037	-0.584811
-3.33786	-1.33471	0.0662105
-2.72254	-1.95809	-2.59063
-5.19326	-1.30783	-3.92684
-0.795844	3.40523	2.20412
4.82425	-2.64333	-2.86692
-1.3536	-0.687675	-1.15753
-8.84371	-2.78884	2.39153
3.4804	-1.87338	-4.14676
3.92061	-5.37797	-2.36266
-3.93132	2.81735	-0.328762
-3.63915	3.44251	3.84883
-0.659668	1.53655	6.79842
2.75804	0.137947	-2.60694
6.20166	-0.872371	-4.65692
-1.85721	-1.12955	-0.829134
-3.30241	1.41932	4.86194
3.42406	-0.237405	-1.62126
2.98078	-0.728654	0.416093
-0.687435	0.968436	-2.91978
-1.58977	0.851304	-2.74751
2.21007	-2.28303	-0.425181
4.07263	-7.28159	-3.51014
6.05983	3.70816	2.60349
-2.47891	-1.04267	-2.06742
2.21991	-2.05789	5.04588
-0.861405	5.00886	-5.26915
-1.87873	-2.47792	-1.92207
-2.65139	2.13022	-4.30012
4.96237	0.188542	0.654063
4.90748	6.13434	2.05363
3.10163	-0.252905	-1.84883
2.08171	0.86571	3.88903
-0.793469	0.16175	-1.37544
-2.32226	-4.22299	-1.84864
-4.52024	-2.1192	-2.9174
2.20953	2.29134	-1.53925
-3.4864	-3.01953	2.20823
1.19832	0.775855	-1.91945
-10.1402	-5.86371	-3.09062
1.18659	-0.56839	1.64551
-6.738	0.980799	-3.28361
-1.96806	-1.83102	1.0145
-3.3323	-1.00244	2.83215
2.41897	1.13432	0.151409
-4.15699	2.84119	-2.3683
-7.56304	-0.987427	-3.80409
3.22922	1.27046	-1.6735
-0.903164	1.5945	5.28175
0.732106	-0.393224	1.16219
-7.23071	2.41	5.03267
-5.35362	0.197245	-0.200645
-0.790396	-0.0595892	1.06128
4.44485	0.902772	1.47547
-6.19632	2.83838	-1.78311
1.07304	2.48353	2.85568
-5.29213	-1.4085	-6.21643
-1.8896	-0.582473	-4.77066
0.973883	-0.290613	2.8435
-4.71536	-0.82509	-2.07643
-5.58094	-1.81645	-2.90101
-7.56008	-0.272937	2.53763
-3.47932	-1.77979	0.050948
-3.06723	5.46371	0.881078
-2.90689	0.860291	3.11236
-1.39175	0.52365	-3.31737
2.1161	0.0336864	5.72954
-2.32547	-3.50881	2.3357
4.02364	-3.46201	-0.902644
1.72095	-1.43506	0.692965
-5.61868	0.293835	0.84661
-3.57282	2.12895	-3.40288
4.01734	2.97499	4.11577
1.93004	-0.561269	-0.865558
3.14542	0.999043	-1.33864
-0.996324	1.05135	-0.650637
-1.18332	0.853713	-1.60417
9.0568	1.81638	1.81255
5.20964	2.01358	-4.84319
-2.89729	-1.58106	0.284385
-1.6422	2.05277	0.503731
2.37725	-3.55009	-2.184
3.33662	-2.08119	-2.64594
-2.10829	-4.13229	9.39553
-3.04202	0.860291	4.23129
-2.54495	0.216081	-0.949677
1.1573	-0.964083	-0.0393774
1.87872	0.491327	0.957159
3.44121	-1.32746	2.57743
-3.56389	3.7803	4.89663
-1.98531	-0.320045	-2.40296
-2.29821	0.688506	3.72164
-7.75405	-0.61382	-2.64962
3.15106	-1.28006	2.33238
-1.59941	-0.828278	1.71205
-3.50499	0.456119	3.41743
2.54532	-0.678527	-0.937973
-2.80882	0.301489	0.26277
-3.4138	-1.1335	-4.57574
2.28887	0.712698	-1.27592
7.80282	-6.97968	-2.86639
2.36118	0.775988	-2.55748
-1.06889	-0.1659	-1.19655
-7.41804	5.86084	-1.38852
-4.08663	-0.862861	-6.16667
5.5921	1.82734	-0.806819
3.42302	0.821928	-3.35311
12.5192	0.0281313	5.02155
-2.088	0.394843	0.656671
-1.90364	-1.29017	0.358732
-2.17814	-0.449935	-0.0730607
-4.79367	-4.0611	-6.34471
-3.59327	-2.12686	-10.4501
-2.49386	0.620004	-2.11251
-7.48423	1.82352	4.93283
-2.44542	3.83391	3.54863
2.63063	4.77245	-2.86857
5.33826	3.58652	2.48662
-1.78817	-0.192886	5.05554
4.43432	-1.75325	-2.19307
-2.11709	-2.75055	-0.304591
6.506	-0.234415	-0.420785
-2.70772	0.190544	-1.37553
8.18367	0.954037	-4.94107
0.657726	0.449596	-4.94136
6.08119	-2.98886	1.45454
-2.4678	-1.98109	-2.2337
-4.91656	-3.79857	4.01274
-5.71978	2.02319	1.20235
-4.10262	1.58761	1.6983
3.02902	0.942758	-0.0543286
-7.17966	-4.3968	-1.20405
-3.1259	0.0979584	1.00385
-4.55577	-4.95613	-3.19274
-5.37375	-1.85312	-3.3956
-5.80622	-0.169711	-3.86401
-2.97436	-3.05364	0.322149
5.01865	1.01364	-0.756327
4.64483	1.96322	1.85946
0.516088	0.536584	-3.35043
3.70536	-1.34057	-3.20804
-0.701658	-2.00766	0.783215
2.88009	-1.13245	-1.00863
3.73135	2.62363	0.366709
3.57623	0.953339	0.206975
-2.36967	-1.61969	1.43894
2.99813	0.058999	1.03427
-1.25481	0.636397	-3.60715
-0.773736	2.1558	1.10971
-4.72985	-0.913692	-0.355701
0.997826	-1.11378	2.23476
2.67788	-0.285145	-5.83135
-7.47324	2.08605	0.626018
3.46658	-2.51441	-1.75148
5.80146	-1.14503	-0.583457
1.91775	-2.92	6.55545
-4.17555	0.677757	8.3353
-0.684443	0.396864	-1.58549
-1.732	1.90199	-1.49185
3.3681	2.04946	1.17334
1.10184	0.649884	3.303
-1.42154	1.45975	-1.1602
2.60447	-2.40592	-2.35777
-2.47632	-1.24324	-5.27276
-2.25083	-0.664007	2.67888
-6.20355	-0.738356	5.12306
2.98564	-0.528987	-0.624788
5.54463	-0.623143	6.34963
2.38535	-2.05221	1.48881
-0.634531	0.854937	-0.236721
-3.35253	-0.109136	-1.05367
-0.93131	-0.343838	-0.321472
-3.50328	-0.723626	0.110441
-1.11383	0.209596	4.53622
2.16091	1.83182	0.207345
-4.0315	2.22098	5.42779
-1.91496	-4.325	6.6075
4.63827	-5.46675	2.01858
2.86842	-0.406282	4.13917
-3.15897	4.24531	-2.28526
4.78933	-8.50796	1.59604
10.288	-0.30519	4.95761
3.73841	1.9388	-0.603757
5.88794	2.86338	-2.05875
8.19268	-0.970356	1.09986
2.02452	0.836448	6.97806
7.2837	-2.74487	-0.662303
-2.75844	-0.624031	1.85445
-2.34693	-0.221685	0.172765
-3.05179	-1.4423	-0.256465
3.37713	-1.62462	-2.86013
4.29628	0.51921	1.65453
5.11853	1.0516	1.83325
3.16741	0.921777	-0.922888
-4.63577	-0.383345	3.93061
0.987322	0.211504	-2.97159
7.06444	-0.360255	1.78386
7.348	-0.934116	0.885145
8.31268	-0.890771	-3.68353
-2.99223	-1.97832	-0.368148
-4.73941	-1.39374	3.82712
7.6217	-1.27309	1.25243
5.90461	0.139873	-2.02138
2.53094	3.60531	-2.1353
-5.24005	3.63983	2.59379
-4.29773	2.51282	-2.51998
6.61689	2.75905	1.37687
-2.5183	3.23358	-2.43832
1.80667	-0.962983	-3.57804
2.06137	-0.253468	-1.8461
1.51832	0.521812	-0.125205
4.88547	6.70051	5.93012
9.03132	-0.971507	3.23331
-4.79222	1.2701	-5.63052
-2.96114	-2.22233	-4.36277
-4.59109	-1.07749	2.41403
-7.43578	-0.461128	-4.51063
-2.77331	7.0274	-2.59595
1.2132	0.568152	-1.05465
-7.00945	-1.09463	-3.15074
-4.09187	4.78459	-1.79923
4.15455	-0.562591	4.04786
1.63637	1.40952	1.16007
5.13207	-1.1945	-1.48132
3.59327	0.356402	2.27262
2.39382	0.779953	-6.08808
4.54428	-0.692141	-0.19633
-2.54627	1.19833	1.79535
-1.28959	-2.18533	-2.36365
5.24988	1.8202	3.27041
-7.23754	0.697783	-1.49497
2.72365	-0.0407998	-3.84699
-3.32084	0.786274	0.787525
-5.04223	-2.29335	2.16266
2.29478	-0.527459	-2.59621
-4.11536	-1.07455	3.2956
-1.9575	0.472823	-2.50684
2.00186	0.0241683	-0.233451
4.21114	3.21706	0.124966
-5.88862	-0.516136	-4.1625
-1.45565	0.11878	-0.270231
-2.00108	-1.59955	-1.25454
2.49754	1.59334	-1.15698
-5.22704	-2.81342	-4.30246
-1.58848	-1.43295	2.14571
8.36443	-4.84961	-2.00101
-2.11855	-1.48302	5.68179
1.53753	2.22773	-0.0188481
-1.39054	-0.946559	-1.03594
2.79558	-1.20521	1.68022
0.56838	-0.958301	0.743272
3.32239	-0.652573	-3.69755
3.95387	0.151197	0.649418
4.58744	4.30212	-3.14392
4.01755	-1.97093	2.03121
3.25592	-1.11409	1.9481
2.25023	0.831028	0.970025
2.48747	1.57165	1.81725
1.12118	-0.607357	1.10333
5.37971	-0.180568	-0.107874
3.93471	-0.55716	-6.08692
-2.18409	0.621781	-1.4437
-6.25661	-4.56097	0.457127
2.25968	-3.38187	3.93817
-4.47637	1.04583	4.3228
5.15148	4.60835	-1.54864
10.6092	-4.62748	2.06072
6.13502	-4.62938	3.5072
-5.9528	-4.12191	2.82287
1.99101	-1.26132	0.879769
5.03293	0.0287659	-0.300133
-2.38341	-0.334436	2.54609
-2.31574	-0.701393	3.60244
-3.61876	-1.58588	3.29603
-2.67622	3.82559	1.08059
1.89642	-1.75224	1.74735
-7.02288	0.632154	-5.84841
-5.11335	-3.01076	4.96613
-9.09389	-0.889	-5.17228
-3.20444	-2.41487	-3.80564
7.31836	2.60213	4.54902
1.01357	0.955066	-1.48283
-4.13694	-2.22882	5.9171
7.40188	0.800635	5.0006
5.08215	-0.949819	-1.73418
0.497178	-0.08109	3.95863
5.53753	2.52159	-1.92486
-7.90035	1.99969	3.9206
-7.75639	0.401479	0.0843795
1.73718	2.54816	1.67413
3.20844	-3.99681	6.94665
3.49522	-0.551014	6.17496
4.9283	3.20453	4.11359
4.06702	9.97335	-5.14801
2.53137	0.948313	1.49526
2.96825	-0.446779	-2.21978
2.12994	0.772708	-3.71446
1.87189	-2.65746	-0.451401
-4.40408	0.851826	-3.38048
-4.77121	-2.85764	-1.68565
0.407496	-1.36867	1.45449
4.36049	-0.308759	-0.212461
2.77319	-1.98554	-0.699169
3.5922	-0.718828	-1.11278
1.76727	1.54363	-1.38359
1.58812	-0.365189	2.86927
-9.18553	5.85699	0.485426
-5.45318	3.45749	1.63356
1.2959	0.207794	-1.9878
1.66695	1.24802	-5.88598
1.51391	-2.033	1.87681
5.56508	-1.13416	4.19712
3.74592	-2.58583	-4.86273
-2.03866	1.15724	0.576402
-6.1921	-4.37709	2.6144
-4.04037	-0.853874	1.75507
4.91607	-3.72097	-1.82608
2.06635	0.213817	-2.26391
1.60687	-0.556559	-5.17424
2.1887	1.06417	0.320592
2.503	-0.933967	0.587678
-3.68016	-2.65826	-2.79753
3.64265	-2.73313	-4.40132
-2.72276	-0.825618	1.99644
-3.69286	1.27218	-8.25637
0.683457	0.819987	2.46754
-4.67869	-0.847347	3.97443
9.04567	1.20075	2.06849
4.2981	-2.91694	6.11954
-2.85857	0.328266	0.453791
-1.26915	0.198414	4.60924
-7.15751	1.46955	-5.58209
-0.730298	-0.651481	-4.27749
-2.19306	-2.70983	-2.95332
-2.12674	1.36542	-2.27628
-0.65607	-2.22355	2.215
-2.76891	-0.571828	-3.36676
-2.18957	0.130703	2.15562
-1.15894	0.715051	4.44654
-7.33628	3.67541	-1.48369
3.06183	0.867585	-0.243374
-4.35789	2.31754	0.951655
1.41479	0.428967	-0.159592
-5.2484	4.17247	0.762886
1.80191	0.231779	-4.48411
3.71237	-0.0176115	-5.0825
-3.16979	-2.15203	-2.37189
2.91101	-5.56491	2.85489
6.00476	-2.20122	2.39637
-2.03206	-0.131936	1.27222
2.42925	-1.24673	2.5125
-3.12552	-0.952147	-0.856925
1.18308	0.0212435	3.97591
-2.10881	-0.740315	-1.94394
-3.13456	0.35897	-2.28269
-2.09735	0.548489	-3.87727
4.52628	-5.18884	2.68897
0.620207	0.707736	-2.21017
9.14913	0.265644	-0.623837
3.15382	-1.78416	2.5786
1.54277	1.13238	3.99201
-3.83971	-2.58385	-3.46711
-2.2055	-4.50763	0.0659378
1.71907	-1.13079	-1.39002
-0.99901	1.35597	-3.07698
-0.67308	0.290634	2.62266
3.53384	0.836403	3.93791
3.32904	2.32718	-7.24536
-1.79121	-0.173588	-1.55395
3.32864	1.52555	-0.234455
1.53735	0.226217	-2.78062
-0.614936	-1.19439	-0.86701
-3.07373	-1.77971	-2.56581
-3.37782	-1.70252	-2.33491
-3.83024	-1.432	0.275133
7.4013	-0.868892	-0.545933
0.227929	-0.0693808	-1.42187
-5.82951	0.189906	0.275162
1.70645	0.35567	-2.48064
-1.55819	0.387464	-2.36243
3.0039	-0.658328	-0.556918
-5.0345	1.12175	2.11397
2.67975	-0.951855	-2.01672
5.06191	-0.675213	3.11391
2.95688	-0.691522	-0.550533
-4.59984	4.29131	-0.191398
1.39993	-0.679993	-2.15406
-3.4674	-2.70042	-2.06646
2.70367	2.64336	-3.55338
-6.81352	-3.80901	-2.15228
-2.81002	-2.35682	0.68024
5.01922	0.384304	-2.51816
-2.78312	3.2238	0.213737
1.12221	0.423605	-5.14919
-5.51589	1.89619	2.34623
-2.1489	1.14004	0.0316346
-4.31978	0.62163	-1.77382
4.77752	-0.14798	0.809886
-4.04401	-0.707882	-9.44574
-2.69715	0.273389	-3.88764
-2.43847	-1.51682	1.50198
-3.88553	-0.179695	0.958224
-0.405574	0.156799	-2.53415
-5.81013	-3.62399	-1.78974
1.34519	2.22999	3.53158
3.27824	-0.0636782	-1.64139
1.22296	-0.392785	1.2134
2.62994	1.38938	-3.80083
-3.27047	-1.1998	5.57161
-7.92404	2.84155	-3.45181
5.73153	-4.61853	6.86325
-1.9644	0.402576	2.9259
3.43428	-2.22351	2.66867
3.60225	1.7065	1.67306
2.73239	1.03028	4.12261
-4.38591	-2.19038	-0.681628
4.1286	1.79595	-4.36719
-2.36105	-1.08582	3.17742
-3.21324	2.86148	1.39444
-1.61999	-0.790112	0.0359131
-2.58388	-0.165009	0.488981
10.4605	0.369389	-5.04675
-4.05235	2.91842	-0.183172
-1.51428	-1.20912	-0.910509
-1.77462	-0.758913	-3.06046
4.26377	5.22619	5.72548
1.48335	0.665174	-0.370669
-1.89935	1.78614	3.20483
-2.30527	1.40173	-1.17223
-1.02548	-0.709424	-0.752342
-3.18884	0.22213	-0.547824
3.61652	5.70298	1.13092
-1.39444	-0.460711	3.33044
-8.34716	-1.84305	4.64214
-2.26669	1.79867	0.483506
-3.79574	0.0447113	2.83801
6.92713	-1.09492	-3.85877
4.89645	-0.440969	3.42272
-1.76011	-1.95251	-4.65433
-1.98397	1.9279	-1.21661
-2.59081	-1.46887	-0.161248
-5.24705	-1.19716	6.11088
-0.850463	0.787655	2.39664
8.04913	3.30393	-3.71032
0.902224	-3.35873	-0.760435
-6.23769	5.69597	1.58111
-1.5012	-3.48074	-3.54806
-0.95333	-1.76512	3.157
4.50347	1.94671	-2.15206
2.8595	0.528766	-4.17721
2.36654	0.546348	-1.38399
3.47988	1.08967	-3.76186
4.78021	1.03459	1.45579
0.59863	0.178358	2.49549
-5.19603	-3.37802	-3.12589
-3.17524	-0.566332	0.0545403
-1.20055	0.549084	-2.74467
-1.42029	-0.878551	1.85467
-0.738249	-0.367221	4.40499
3.95432	-0.340646	4.36501
3.25692	2.00907	0.840307
5.23617	-1.45105	0.982014
1.73567	-1.72768	-2.05052
1.07416	0.672502	1.27098
-6.54873	1.13937	2.41691
-8.47898	1.02898	4.59682
-2.46087	1.31236	-0.959275
-2.47011	0.981079	0.781231
4.84039	-3.95651	-3.21233
-3.75585	3.14892	-1.19168
-2.22877	-0.522354	-2.13372
1.45525	-0.545154	2.80592
4.13386	0.783035	-2.0329
-3.21901	-3.2898	-1.50984
4.76015	-1.23426	-0.28214
-0.901587	0.833131	-1.18403
1.61492	2.25855	-0.324781
2.10772	-2.43702	3.22191
3.46164	0.909446	5.92546
-4.91206	-0.0218407	3.19278
1.66893	0.0246147	-5.76773
4.78248	-2.10739	-0.213707
2.64225	-4.35496	-2.8614
4.65783	-1.29087	0.485726
-2.33654	-1.34184	1.25936
2.75102	1.24917	-4.02576
7.53626	2.04463	0.875054
-0.883036	2.1084	-1.8957
-4.69843	8.24613	-1.01472
-1.64833	-1.67467	-3.42276
2.5217	-0.860627	-4.19023
-6.07314	2.1748	-7.50172
4.27271	1.09924	-2.2819
-4.94852	-1.63651	-1.33854
0.691073	-1.31143	0.979503
3.49101	-0.172505	0.719494
-1.34838	1.61381	-0.156893
-3.985	-2.09254	2.52362
-3.76167	1.45189	-2.47472
-4.38266	1.65829	2.90635
1.30408	-0.823413	-2.92474
1.94561	0.45945	-0.128458
2.25992	-0.929485	1.5182
-2.89891	0.591001	-1.99083
1.04781	0.192125	-0.145917
-0.594633	-0.675792	2.49086
-8.8526	-1.47572	-0.75673
-7.04698	0.183556	-0.293264
1.95852	-6.10007	-3.08515
4.21635	-1.42099	-0.535782
-2.53849	-2.85963	-1.53937
4.00833	3.85198	-0.376556
-4.74025	-0.482245	2.23852
2.13693	0.453266	-4.97556
2.92016	2.1227	1.50335
2.94459	0.0613956	5.10172
-3.15705	2.41901	5.19193
-5.65349	3.53265	-1.62027
3.2479	0.444264	-0.43209
3.76451	-2.49106	-0.565381
-5.71807	1.44104	2.36754
0.259129	0.211002	2.57219
2.70841	1.71065	1.70225
-6.76684	-4.10668	-7.88477
3.43086	1.75692	-0.19383
3.27314	0.519911	-6.39223
1.62447	-0.338872	-1.132
2.29682	-2.12678	-3.40494
-8.09792	0.426666	-3.43027
-4.73968	-0.354084	0.686644
2.7762	0.377501	6.93815
-2.92285	2.82121	3.77809
-0.300621	2.34051	0.875991
-2.13362	0.294987	0.879715
4.47364	-3.88257	3.13012
2.81507	-1.09052	-0.299273
-2.81344	0.24975	-4.18788
-1.91069	1.5974	1.13771
-2.13476	4.63526	0.522124
-1.10427	0.672779	-3.06708
-1.17328	-0.00340136	-1.74991
-6.6523	-4.92772	-8.75406
-3.02839	0.880168	2.2401
-7.32011	3.44951	-2.10821
-3.9247	4.8394	1.38674
-4.00853	-0.974611	-0.165648
-2.67828	-1.55634	5.23121
-3.71948	1.98367	1.35356
4.51596	-3.45826	4.02049
-1.30833	1.46038	3.50078
-0.866615	0.756113	4.23896
10.5202	-2.53861	0.814294
1.87839	-0.537716	5.62201
1.27743	-0.720477	-0.330903
3.16785	-1.20554	4.68252
-1.72792	1.71125	3.65126
-5.15565	-0.636234	-4.77542
-1.71596	0.587611	-4.45254
1.57895	-0.28382	-1.85472
-2.4899	0.435568	-3.77984
2.77696	-3.3389	-1.41348
5.73336	4.04499	3.21223
0.882967	-1.74082	-3.3527
0.173484	0.327219	1.37969
1.76371	-0.113378	-0.633664
2.89215	2.73502	-1.01733
2.30878	2.03654	-0.680269
4.51235	3.14737	-6.23321
1.50746	-2.29741	-1.0866
5.64016	-7.54371	2.78002
-1.7392	0.907064	0.200732
-1.45513	0.0128452	2.54709
-4.9208	-0.916536	5.24018
-4.11416	-1.98497	3.0737
3.87008	1.14388	-4.75897
-5.16567	-0.651754	2.65248
1.89942	-1.6982	2.51587
-8.58521	0.273167	-3.91672
-3.82614	0.5179	-3.24319
0.508616	-0.1168	4.51286
-2.52475	2.41309	-4.94744
4.18702	-1.89731	2.03448
-1.37185	-0.581224	2.10511
3.93761	0.8069	2.17591
2.71298	-0.576903	-2.38712
1.5926	-0.510906	3.06832
-5.35765	-0.0815474	7.73979
-3.19245	2.50494	-0.619605
5.21675	0.81557	4.6243
6.64476	0.0166197	4.76028
3.2506	0.323761	-7.15458
2.1514	-0.0536309	-5.39512
6.7706	0.886233	3.09254
-1.40396	0.169053	-3.45674
-0.802525	-0.772785	1.74834
-1.05832	-0.87068	-0.0409646
4.47621	0.641213	2.82814
-0.765519	-1.16212	-1.20597
1.71338	-0.756201	5.78466
-0.442434	2.05828	-0.96972
-4.00362	4.01798	0.0830096
-5.64441	0.588551	-7.75451
-1.34513	5.13671	-5.67154
-4.1479	-0.178633	2.39083
-2.31399	3.63168	-3.44807
1.68876	-0.236661	-0.348191
-1.42435	-1.80364	-0.0935573
-6.10222	-2.79299	5.25667
-2.29514	-0.594934	-1.35938
-1.12282	2.52453	-5.95556
3.2736	-0.429094	-0.0531585
4.46375	1.70723	0.656962
4.20835	3.79557	-1.98468
2.91596	-0.40629	3.64433
-2.30477	2.68926	-0.654931
2.98435	-0.549118	2.23303
3.13772	1.09976	2.8858
2.52542	0.411846	1.28354
2.45743	1.66327	6.26478
-2.69968	-1.48498	1.53098
-2.51533	-2.42623	-3.35125
2.70893	0.0151201	0.881326
5.3719	-0.740276	-3.96435
-5.65779	1.31912	-0.818162
-1.35819	1.79028	-5.19568
-5.85174	-0.858573	1.78841
4.34058	-1.5243	-2.89563
4.22991	-1.01204	2.9595
2.64586	-1.33171	0.338888
4.39245	-2.97788	-2.57754
3.94737	6.10491	3.16373
1.68733	-0.911171	-1.87888
-0.546253	-0.273481	-1.24509
-0.368649	-0.16446	-1.18974
-2.10036	0.432523	6.54672
7.06063	-1.11464	0.0528363
-2.04567	-0.323693	4.55231
2.8164	1.87369	1.12775
4.08724	-3.59395	-0.407561
-1.77769	-5.32189	1.32196
2.28301	-0.0375055	11.5524
-3.34128	5.58663	-2.55134
-3.87024	-0.772991	-5.64526
5.22694	0.860908	3.8303
-4.31071	-1.27151	-1.08218
-6.84328	-4.12269	-0.430894
-0.444945	-0.546846	-2.48896
-1.8137	-2.3263	0.0626552
3.59986	-0.318661	-1.00838
0.47406	0.145584	2.60145
-4.66311	2.65317	-0.796704
1.15921	-0.932591	-2.60614
-1.85433	-2.38775	0.249108
1.46542	0.0946963	-4.88845
-4.37362	4.47311	-5.95148
-3.04944	0.659777	2.11117
7.00697	-0.0318109	0.511229
-3.42703	1.53297	-1.72027
-2.51125	-2.65618	-0.871151
-2.67084	-2.12001	5.28947
4.25647	-0.629861	7.29371
-1.57725	-1.93601	1.35928
-4.08339	2.74663	-0.772727
4.12314	-2.68056	0.933121
-2.5043	1.36354	-0.497346
1.57376	0.603143	4.27742
3.00157	0.444589	3.03147
3.2842	1.28022	5.82075
0.60267	-0.681552	0.151416
-1.37063	1.20277	-2.50814
2.51405	2.04213	1.98345
1.21643	1.31148	3.60621
3.51564	2.31873	5.99214
7.86698	-6.7553	-0.59258
3.07321	-1.7457	-2.86102
-7.06216	-2.36244	-1.4716
-2.16091	2.69442	2.2106
3.39007	3.32838	-0.88676
-3.81861	-0.378168	-0.185592
-7.89392	0.654243	1.90421
0.313444	0.0682246	5.47051
5.05367	3.27104	-1.23269
3.0461	-0.136744	-6.61641
1.90034	-0.9134	-4.27331
-3.20396	0.79283	1.0284
-0.704577	1.28952	2.19063
4.32088	0.141271	-2.8881
4.83023	-5.93512	3.39434
-2.01212	1.64257	-0.0444858
-0.739782	0.438313	-1.81049
2.53645	0.536727	-0.340567
2.54466	-0.028459	-3.5464
0.821777	-0.926021	-7.57762
-2.50325	3.28838	7.52908
3.43497	-5.83169	-4.5697
3.50532	-2.9062	-0.464231
1.92283	0.77984	3.82604
2.6681	-2.06321	0.349081
4.01985	1.83603	1.56497
-3.09463	-4.47351	6.9687
-3.72351	-1.87181	1.41622
1.91163	-0.171723	-4.27306
-3.11888	-1.39345	0.636937
-0.175753	0.0955201	-2.7
-0.464219	0.31536	-5.59427
3.03554	-4.50774	-0.432959
4.77502	-4.95828	1.2249
2.60246	-0.521668	3.01722
-1.10176	0.0182856	1.45926
-4.31097	-1.57157	-2.33308
3.34413	1.57187	-0.204681
-2.78381	-1.78819	1.47231
-3.55129	-0.694799	-0.495253
-2.17606	3.2139	3.13542
1.47154	0.455866	-2.64021
-3.95123	-1.59223	1.12963
2.42839	0.290546	-1.00241
-1.32693	3.8468	1.17607
-2.46636	-0.295431	3.3844
-4.09736	0.139218	-1.39561
5.49596	-0.6826	1.91125
4.50387	2.27271	-2.27552
1.25931	-0.894486	-0.901032
-3.56889	0.366288	4.98733
-8.8707	-2.49802	-1.10182
-4.9285	0.520892	2.71933
-2.4777	0.969244	-1.68885
-0.151662	-0.247572	0.933808
-0.822282	-0.485399	-4.12889
-6.00832	-0.343634	-0.756336
-3.46848	-3.908	1.98519
4.31251	-1.78448	4.58028
-1.19518	-2.33477	-5.43427
-3.75291	-3.04855	1.88346
4.61303	0.608523	-3.03434
1.47174	2.50965	1.01823
7.85948	4.3488	3.96884
-5.39991	-2.19856	4.15234
4.51019	2.72904	1.75138
2.34738	-0.82383	2.03121
-7.63138	1.48818	-2.72138
2.60736	0.834019	-2.88754
-2.49815	-2.36055	3.47372
2.90467	-2.21254	1.72318
1.80274	-0.266498	-4.45466
-1.28691	-0.826561	-1.22193
2.82434	2.64179	-0.693334
0.792361	-1.09165	-2.01949
0.993006	-3.4479	-1.63308
5.02703	2.43036	1.8181
1.91033	1.25284	2.32757
2.46042	-1.71155	2.11311
10.0232	1.36368	0.48953
0.382889	0.361561	6.29737
-1.78077	0.825562	2.80511
-3.6253	-1.50337	-3.83852
-1.40517	1.92983	2.74817
-2.08482	-2.33804	-2.66589
-0.502375	-0.865212	-2.44929
-2.0682	1.0156	4.24105
-4.88175	1.9013	-1.39792
5.63288	4.70288	0.220897
-1.74099	-2.7913	1.3266
-6.00189	4.79733	3.41274
-5.9661	-0.111764	-4.11154
-1.78456	0.770993	-4.21464
-7.56909	-3.35237	-7.94255
2.40716	-3.0235	0.13345
3.0311	2.31097	-1.26343
-5.21635	-1.56499	-0.0977028
-9.98151	1.90262	-2.25759
-6.97983	1.06029	3.03875
5.36586	0.387807	5.44174
1.84024	-0.0855471	-2.89746
-2.18115	3.96076	-1.2339
-4.3396	1.96122	-4.66174
-2.23589	0.0400933	4.64608
-0.443735	0.293176	-3.81845
3.35991	0.833834	-0.286427
-2.11698	1.03905	1.3443
3.26988	-0.882449	2.56481
-1.00805	-0.428652	-0.37629
-6.52404	-2.00794	-1.22467
-2.34628	-3.35815	0.462342
-4.46418	-4.67225	15.3603
-0.767872	1.0289	-0.56982
3.75633	1.18698	-0.242752
-5.81064	0.537144	1.87588
-2.00885	0.718811	-4.29678
5.1405	2.87594	3.47275
-1.75705	-0.0542332	-1.50396
0.392	-0.743962	4.81005
0.848872	0.919141	4.35716
2.4496	0.705989	-2.82633
4.5543	-0.604165	2.19711
-3.22946	-3.86489	1.15271
-0.46827	-0.410469	2.31228
2.15137	-0.689466	-3.43811
-4.35185	-0.858532	0.858978
2.63285	-1.16256	-3.70471
6.79233	-1.16148	2.79332
-4.37914	-0.48734	-3.61176
5.16336	1.40333	-0.381108
-3.30016	3.21084	3.95713
-5.15869	1.4598	2.51033
-3.64615	-1.59755	-4.27562
1.86069	-0.668235	2.33054
7.16843	1.75936	-0.718463
6.78002	-0.660979	1.26911
0.614702	-0.153755	4.09304
-1.16806	-0.79873	-1.84099
2.32023	0.914379	-2.97403
-2.7282	1.47244	-1.95287
-6.82097	1.06943	-2.07003
3.2103	2.07782	0.334644
-8.49205	-4.63885	-4.70876
9.46624	-2.19931	1.0217
-2.756	-1.71827	-2.47251
2.78636	-1.24401	0.569008
4.28713	-2.70501	3.09069
4.95527	-0.14891	0.809976
4.41174	-1.73169	-1.81094
1.31212	-0.549126	-2.41759
-6.43171	-2.82592	1.58394
-0.612589	-0.110457	3.53747
4.84097	-1.21489	-1.03805
-1.68707	2.08874	0.784467
-2.79169	-0.889395	3.32566
-0.953585	0.842398	2.60575
-0.962627	-0.981142	-3.37348
7.30486	-0.803071	-0.0537093
3.14851	-0.15046	1.58496
4.64075	0.17968	1.54836
4.51684	-2.90989	-1.03871
-1.23768	-0.351811	0.761706
0.539715	-0.465224	-3.75263
4.20823	-1.16516	0.42327
-1.29523	0.129169	-3.16713
2.8848	-6.50718	3.10793
1.89982	0.925747	4.32581
-2.69405	-1.55071	-3.84053
-2.70201	-3.08776	-0.221335
-0.616996	-1.16826	-3.72288
3.42672	-1.33236	3.66689
-4.33907	1.4903	4.14229
-2.62194	-0.286748	1.30224
7.04011	-1.99716	0.293483
3.12618	-2.15721	6.33252
4.54322	1.63037	-4.95664
-4.00668	0.338962	-5.38672
1.33823	-0.437082	-3.84588
-2.94692	-4.66579	0.859963
-1.34725	4.82512	0.654786
-5.97575	0.149431	-0.510325
-6.66939	-1.02633	0.748209
-1.81132	-1.15785	-1.108
-1.45746	1.56482	-1.57167
5.0992	7.79982	-1.31289
-1.40392	0.759604	0.721976
6.39553	-2.5309	0.902773
4.67793	-0.293812	2.00187
2.3844	-0.152491	0.138089
5.43964	0.871655	-1.49997
-2.8484	3.20314	-1.29227
1.03254	-1.69706	-4.66687
-1.59637	0.119695	-3.89192
4.56523	0.130032	0.83165
1.10147	0.998199	-3.1292
-6.30976	2.75598	-1.03383
-3.37225	-1.74862	1.86027
2.60403	2.0642	-1.40784
-3.56406	-2.02306	-1.30721
-1.20898	-1.31078	0.0995345
3.79124	-1.95076	3.63244
1.4979	-1.02773	0.827793
3.77916	-1.41494	3.10775
-5.17382	-0.389455	-2.62194
-2.32269	1.32264	-2.1224
-8.56542	6.46271	7.15904
-3.95687	3.06446	-1.63694
4.54104	0.284028	2.34714
-0.971221	1.23989	-3.07652
1.48529	-0.422434	-1.32
-0.917513	-0.919948	4.20826
3.41406	0.637761	-4.29311
5.62853	-0.302036	-0.360269
-2.21293	4.24763	3.69017
4.2365	-2.09589	2.34072
3.34003	1.24269	-1.01036
-3.61359	1.58138	-3.0253
-2.68803	-0.0539276	2.32462
-3.28531	0.241954	0.00167994
-7.2238	-1.87636	1.72191
-3.27479	3.79416	-4.4462
5.23916	3.28308	-0.392468
1.04522	-0.816109	-3.42986
0.995554	-0.902345	0.773427
1.75502	3.64608	0.613534
-4.03684	-2.28379	-2.23607
2.94218	-2.10767	-1.43587
5.46753	-4.22144	-0.146305
1.13993	-2.67032	5.38925
-3.84055	-2.03681	3.02417
-4.57716	1.05088	4.83716
-5.36186	-0.707172	1.60533
-1.31323	0.0146506	1.71956
4.27343	-0.112353	0.670231
-3.85439	4.31352	1.04876
3.39514	-1.08925	-0.034817
-1.48747	0.978839	1.96182
-1.21319	-0.0313188	-6.58096
5.17733	2.09381	-3.93307
-0.66214	-1.06341	-2.00008
-2.46648	0.494478	2.00967
-3.44622	2.60771	0.505856
-2.90084	2.61897	1.44409
6.5536	0.0114135	2.00951
4.80129	-1.96189	0.765499
1.43468	1.18703	3.12451
2.11849	-0.170454	3.02394
-2.98584	0.179459	3.22996
9.63541	1.50522	-4.56846
3.57105	2.61174	3.03119
-1.69917	3.96521	3.48645
-3.03565	0.601544	0.998302
-3.83705	-1.81316	-3.43604
3.34133	0.40588	0.0106095
2.98112	-0.402149	4.005
-1.18465	0.14457	1.73491
1.34323	-1.11406	2.18166
-1.25586	-2.2633	-4.31041
-2.50111	-1.21583	0.588158
-2.9611	2.08079	2.05285
-1.25143	0.225435	1.23805
0.785568	-0.421355	6.13239
5.01384	-4.58658	-2.9923
0.534132	0.00146351	0.174119
2.39287	-0.19936	0.0047269
1.60391	-2.06165	-2.86369
-2.43307	2.0953	2.94163
-3.12826	0.137419	5.07803
-2.19118	-1.39454	5.55434
6.91588	0.354999	3.91772
-1.30811	-0.994758	5.59071
-0.486234	-1.06134	4.7118
-2.24774	5.31334	-2.35719
5.83164	1.00239	3.06228
0.891969	1.17111	-2.94377
-1.5297	0.119614	0.0715885
-7.60509	-0.0307301	3.27328
0.366558	-0.873558	4.3811
-2.29746	-0.774567	3.58941
2.73439	1.10326	0.0876578
4.28287	-0.826326	-2.40183
2.80574	1.23724	0.732988
-1.66484	-1.19276	-2.0437
-0.824571	0.497355	2.61286
-3.51119	1.15062	1.32493
3.8687	0.932855	-0.525006
2.60912	-1.14709	0.365464
3.37591	0.950721	3.05956
1.49085	1.90466	-2.25226
3.78214	-5.38195	1.25361
7.60697	-1.89487	-4.05847
8.095	1.16032	1.79635
8.04042	-3.87431	3.62051
1.97214	0.435723	0.724158
-1.61514	2.95311	0.958246
-3.93098	-2.70933	-1.31598
0.921903	0.928352	-4.00528
2.32276	-0.416736	1.72384
-4.19912	1.87688	4.59804
3.59311	-0.727616	-3.34606
1.12045	-0.200107	-0.225153
3.51307	0.787995	-0.495526
3.44484	3.13206	-2.55029
-6.95846	-1.97132	-6.03651
-4.73689	1.86306	0.61729
-2.41306	-0.0941959	-0.543311
2.43802	2.72152	-0.668172
4.88228	-2.64822	9.10615
2.46832	-2.73627	0.49357
1.58359	0.701259	2.99394
4.07824	1.0183	0.379369
1.12639	-0.275519	-0.594552
3.06557	1.22536	-2.93207
-1.98601	-1.16651	0.193513
6.07402	0.679633	-0.10526
-1.22963	1.92718	-3.35228
1.56407	1.21568	-0.321775
-7.35876	2.7311	-3.30375
3.42921	1.13909	-2.05084
-3.21008	1.06114	2.40907
6.63981	3.23276	1.81163
4.75081	1.92869	0.529158
1.38445	-0.216824	-0.831512
-3.70885	3.4449	-4.29717
-3.10672	-0.948566	-2.1262
2.74592	0.439246	-2.02145
4.84688	7.39464e-05	-0.419617
2.34279	0.367301	3.1171
1.39665	0.451017	-2.58686
2.88764	0.206192	-6.1037
-4.06066	0.773758	-2.6625
1.47003	1.85513	3.91183
1.63157	-1.23784	-1.31271
3.82782	-2.25303	0.157948
3.61403	1.19427	-0.659695
2.84004	-1.64659	-0.340155
-1.5084	-0.283575	-3.4917
2.35391	2.76354	-0.685253
-2.44791	0.00892322	-0.503121
-2.69116	-1.69797	-0.475444
2.50683	-1.74664	-0.0282182
6.30674	-1.53158	0.0329173
10.4386	2.07124	-1.1767
-5.07015	-0.371103	-0.269165
-1.80205	4.32901	-0.209225
7.79942	-2.47424	-3.00088
-3.69996	-3.16867	-1.1495
1.02275	-1.0245	0.674629
5.27397	4.50177	1.60904
1.02136	-0.00913193	-3.39679
1.17508	-0.0542089	1.00979
5.00427	-2.14115	0.93736
-3.67528	-0.0156546	-0.27416
-4.87485	5.24215	-4.08944
3.59982	-2.69075	3.37488
1.25182	0.713554	0.314684
5.42638	-0.823566	3.43704
0.364321	0.409196	-2.11513
3.72697	-0.885061	2.56173
-2.33487	-2.27398	-0.254456
4.84818	-0.30636	4.44834
-6.3469	1.37526	-1.36298
1.87435	2.01265	0.351309
-1.09939	1.45142	-3.99285
3.44531	-2.41555	-4.61521
2.33872	1.12511	3.79581
4.41379	-0.243755	7.68194
5.27195	0.0561447	3.08528
2.03148	0.00263913	-1.64754
-2.45782	0.190943	2.45164
2.72956	4.08504	6.06876
1.94567	0.429233	1.43973
-3.84816	-5.99307	-3.0176
-2.44846	3.16082	-1.18373
-2.02363	0.409695	2.84308
5.59152	3.31134	1.80668
3.32322	-0.402509	-1.66601
-2.06909	-1.62772	0.358326
-4.54078	1.34959	0.573402
2.12898	0.100909	2.12535
-1.5951	-0.930121	-3.82863
-4.82408	0.276635	-3.31649
-2.95067	-1.48148	-1.71078
1.15796	-0.295791	-1.67312
4.03684	1.58696	7.09858
-2.14162	-1.45348	3.36031
1.28899	-1.25056	5.54748
-4.84813	1.74111	-0.077285
0.351185	0.0465721	-1.83469
4.11904	0.64936	1.05293
-2.97541	-0.104255	0.21552
1.76174	1.5404	4.15326
-4.90349	-2.14553	-1.90754
4.205	1.4973	-4.16305
0.271982	-1.51136	0.422417
-0.887404	-0.807454	1.77242
-2.05305	-1.43221	-0.114633
1.36875	-0.124398	5.15133
4.8145	2.8216	0.580167
1.54009	-1.15243	0.815641
3.11702	2.04571	-2.20679
-8.20423	2.20825	-6.15435
-8.03546	1.20293	-1.48221
-1.41429	-2.36915	2.71616
-5.89652	-7.00088	7.53875
3.23675	3.27463	-1.25873
-3.62861	-0.298786	1.48304
4.06622	2.86814	-2.77337
-2.09976	-1.30363	-1.66711
2.03711	-0.136464	-3.22352
4.12334	-0.432805	-0.750688
5.74774	-0.465164	-0.388328
-2.61673	-1.80471	-4.42094
1.62427	-4.2737	1.83802
-5.11802	-1.41153	-0.337285
-8.14563	-3.86061	-0.581627
1.39834	2.30588	-2.62278
9.19264	-3.14903	2.49229
1.182	0.0386217	2.53436
4.91825	-0.0956267	0.736402
-0.738702	0.0171704	-0.0876818
-1.08045	2.82814	-1.79749
-3.81779	0.99596	1.54834
-1.65723	-0.00779222	-1.66195
-7.43116	0.209711	0.116686
-3.79281	-0.358202	2.48353
-5.23437	-1.85183	-2.71191
0.984948	-0.186342	2.58739
-2.11204	0.66793	-2.4573
-3.19535	0.26821	1.64681
-1.53516	-1.77065	3.25746
1.54287	3.0717	3.9639
4.51909	0.204103	-0.347568
-2.50732	0.00139548	5.3456
2.38328	0.0250115	1.69629
0.661135	-0.321893	0.0908278
1.21413	2.08382	-0.421777
6.70365	0.753597	-2.71971
-2.86855	1.0074	0.641902
2.86243	0.950905	-1.89018
-2.78012	0.399324	1.32922
-0.674977	0.203438	0.51011
1.0924	-1.8505	-1.62678
-3.24803	-1.57798	0.88009
5.04405	3.43069	-3.82907
-0.84573	-1.6111	-0.100642
2.23836	-1.43092	5.19012
4.28882	2.24664	1.46959
3.11422	3.10729	-3.06941
3.66876	-1.68143	1.57049
2.14389	-1.41599	3.81733
3.2121	0.883412	-4.04031
2.61035	-8.1788	-0.368716
2.07819	0.241276	-2.22986
-5.29844	3.78499	-1.20348
-4.43243	-5.21802	4.4179
-0.65297	-0.961483	2.33763
4.10708	0.212916	-1.76412
2.00144	-0.291472	-0.38317
-6.69248	1.5923	9.29143
-1.37387	0.655927	5.11164
-1.27178	0.183753	0.910892
1.68969	0.111579	-3.23477
-1.794	-0.836236	-1.02454
-4.16357	0.662458	-0.145307
9.52652	-3.64822	-3.23149
5.78882	-0.258215	0.187181
-1.21983	-1.0831	2.73556
8.28504	-1.43814	-3.9386
5.28414	1.56273	2.78019
1.8854	1.10838	-2.15927
-3.73377	0.975229	-6.90609
-2.54969	1.45353	4.26593
3.64958	-1.51057	-1.61655
2.64034	0.358216	3.1121
1.94298	-3.42259	-1.1854
-3.02083	0.506827	-3.26775
-3.55745	5.01679	2.75649
2.19189	0.482404	-1.08995
-0.962555	1.82166	1.52319
-5.3632	5.92725	-6.22126
3.9325	0.429449	-2.50974
3.55999	0.392294	1.07012
3.86293	1.98462	-0.578699
-1.10181	-0.42902	0.555425
1.48871	-0.587706	-0.435324
-1.77795	2.39502	0.485184
-4.46938	-1.03556	-2.30124
2.63296	0.289044	-0.120951
6.11755	-3.75904	1.46296
1.52649	3.16359	0.96491
1.44294	-0.347953	-2.27348
1.93809	0.898071	1.94229
3.12385	-0.719478	-1.54857
7.38393	-1.89741	-5.93922
-5.15934	-0.73393	1.91517
-1.50823	0.399181	-0.609719
-3.89947	-0.00956613	1.06543
-2.24757	1.5375	-4.40039
-5.0532	-0.69479	2.10717
-2.38767	-0.336712	-4.67032
-3.22875	4.54362	0.999401
-0.753784	0.84545	-4.96838
3.17943	-1.90981	-0.305829
2.99805	1.17621	-2.89205
-5.6338	-1.94796	7.29547
-2.99937	-0.537116	-2.26448
1.19847	-5.49161	-2.98381
2.42959	-0.719843	-3.10181
-4.6711	0.804175	-0.771841
2.21911	3.86604	-3.56474
0.442511	0.362102	-0.540396
-2.06098	0.284067	6.52605
5.75725	1.90626	5.25718
-4.25147	4.48357	-3.65142
1.23515	0.804118	-1.91812
3.61996	-1.24294	-3.71631
4.99358	-0.516175	-6.40979
4.5135	-1.78965	3.44689
0.750545	0.0133334	2.83888
4.43484	2.01722	4.88182
-1.62679	1.60784	-3.12089
1.65876	0.745787	4.49237
-1.52706	-1.69022	1.13577
0.70249	-0.630229	3.74388
4.91716	-3.53736	-1.48864
-3.52136	-4.02082	-0.851829
7.72761	2.86015	-1.64566
-2.60597	-1.0479	1.27565
1.34564	1.0178	-0.513511
3.64434	-0.239978	-1.6226
-6.27512	0.957372	-0.0910984
-5.94061	4.89581	0.0783955
-0.3838	0.465806	0.941636
3.29058	-0.567037	-0.685477
2.03967	0.395274	2.56971
-1.22958	1.83972	-4.08213
-2.86463	-2.05949	1.62945
-2.9836	-0.509175	2.42863
7.01085	-0.899271	-1.26552
2.97488	-1.7575	-0.198727
-1.86661	1.08563	1.22086
-3.91904	0.52229	0.413916
2.38218	2.28605	1.56001
-10.1768	-4.229	6.1138
-2.03123	0.747124	2.48918
-6.56874	1.32304	0.549215
5.90654	0.760102	-4.60777
-3.50179	-1.62942	0.720646
-4.47309	3.32736	-5.17344
4.24425	1.35906	-1.63389
3.63646	-2.30434	2.48372
-2.42586	-1.70164	-2.8182
-3.1602	3.42633	1.55313
-6.95072	1.70461	5.21217
-6.47287	0.317109	4.62143
-4.85869	1.11877	-0.751674
-0.837102	-1.65646	1.37088
4.7134	-0.799176	-0.374705
-5.07486	2.67038	1.3717
-4.40474	1.25349	0.70964
0.294882	1.18208	3.00901
-2.03194	-1.4704	0.230747
3.36241	-1.00094	-0.754405
-3.3316	-0.75306	-1.31429
-6.65187	-6.70242	2.23219
-2.98511	1.36204	-1.51094
-2.08874	3.65627	-2.85277
-2.14971	-3.7817	-0.343435
2.45486	0.699614	3.47878
-1.82083	-2.75123	-2.11112
2.39252	-1.73568	-6.64455
-4.77967	0.0368516	2.59735
1.29097	0.733603	-2.46206
-4.58541	-0.854372	2.38195
-1.81281	-1.57644	3.69339
2.22994	1.16594	0.651345
-0.271179	-0.104931	-7.94711
-2.11358	-0.559602	-0.557195
-5.52186	-0.304612	-0.4943
6.03916	4.82829	-0.964133
0.0975088	-0.771213	1.00536
-0.892861	-2.10616	0.867743
-4.3202	1.7762	-3.4393
3.23184	7.01313	-7.3971
6.26684	-4.19451	0.0869283
-5.37178	2.62514	2.82089
-1.86431	-0.468636	1.30301
-2.15992	-1.86499	-3.12974
2.57912	0.186504	0.853039
4.64804	-3.6754	-2.63415
-2.07097	-0.365281	-1.2278
-6.49356	-5.17042	-6.19579
4.08056	1.03059	2.03183
-8.23032	-5.47635	1.87564
-3.55866	0.692178	-4.88288
3.8549	1.12025	-3.29644
-3.93181	0.767226	-0.31919
2.21831	-1.21982	-0.631766
0.0255562	0.0230954	-2.01765
-3.13576	6.29251	-0.0664506
-2.32808	-3.16767	-0.653083
1.27045	1.35744	5.51377
0.725801	-1.46485	-3.71208
-4.42239	1.02515	0.460714
1.41527	1.28128	-1.26458
-1.54721	-1.98736	-0.374792
-3.86211	0.832822	0.708515
-3.94153	0.673767	-0.128824
5.83184	2.39044	4.70119
3.46654	-1.11588	-0.86824
2.00056	2.27249	-1.93287
3.0002	0.491623	-2.49219
-7.33206	3.46171	1.49793
1.11957	1.31884	0.415134
-5.85529	4.02075	-0.603547
3.28884	-0.781758	4.08652
2.31375	-0.333324	0.891895
1.24446	-0.0106679	2.02557
4.14388	0.43084	-5.07554
1.75779	3.22697	0.755971
-1.01102	-3.37505	-6.2469
3.36637	-8.94524	0.822084
-3.35032	2.4736	-2.52265
0.509271	-0.63017	2.43491
8.98371	-0.766267	-4.03471
2.70672	0.362486	1.64083
2.85736	0.111241	4.28676
2.38215	-2.01171	-1.14209
3.45627	0.465128	3.93822
4.13272	-0.989958	2.92642
2.33967	0.166967	3.02525
-2.6871	0.840104	2.80865
4.29154	0.522893	-4.81751
0.657356	0.968976	-2.73616
0.798912	-0.736941	3.66165
-2.18878	0.219458	2.61255
1.36755	-0.839001	5.28377
3.46765	-0.366927	-0.503294
-1.92909	-0.151071	1.12657
-5.37025	2.14106	0.051768
4.17341	-6.82391	0.165969
7.70022	0.940678	-0.498006
6.34379	3.11245	-7.26032
1.16504	0.844338	-0.099154
-3.99861	0.374977	13.0046
0.644726	1.4782	-3.73675
-1.59025	-0.100355	0.20974
2.64218	-2.21521	-2.39974
3.82648	-4.3518	0.046782
0.520331	-0.665925	1.14376
3.60419	-0.00782381	0.0230226
1.71772	0.685709	1.33735
5.8101	1.11681	-3.64637
2.56523	-0.376991	1.45093
2.86764	2.63252	-2.74654
3.75112	1.97911	4.83295
1.33633	0.0395305	3.66589
-6.29992	0.766417	-3.17737
-2.56793	0.198026	0.171686
1.54685	-1.0293	-7.01122
3.0028	1.1581	1.54333
3.88063	-2.39023	-0.787035
-3.19803	-1.95229	-4.68637
2.45426	3.36995	-2.1409
-8.86817	-3.06377	-1.91193
-3.70584	2.2348	-1.5309
5.60576	-3.64521	2.07777
-2.90917	-1.68688	-0.00284833
-1.56442	1.76071	-2.75883
-0.98176	-2.1561	4.29221
-3.1428	1.92829	7.03843
-2.87366	0.339958	-0.881579
-3.92648	-2.73392	1.94556
2.86904	0.180775	-0.92852
3.93717	-1.38671	-0.214586
-1.86381	-1.76398	1.46927
0.767514	0.112491	-6.26942
7.1129	1.69861	5.22388
3.0178	3.3312	-3.77874
5.90767	1.5613	3.99879
4.24759	0.699148	0.100407
0.794829	-0.316281	0.32748
4.52374	-3.42576	-0.528725
-4.44022	-2.55798	1.20022
1.27648	-1.39301	-3.65055
3.28735	-5.35673	-3.24071
6.14848	-0.0623802	2.38142
3.44603	-3.48756	-0.0541503
1.75134	0.443211	-2.56609
-3.90758	4.15174	0.543274
-1.60429	-0.185231	-1.70576
2.79122	1.48032	-1.77104
0.938358	0.110422	0.723556
2.2046	1.47161	-0.321464
2.00574	1.12867	3.11355
-4.15771	3.47675	0.0424889
-3.36418	-1.22718	1.94393
2.38421	-0.522508	-1.26881
-1.18543	1.7233	-1.3156
5.82786	-2.63522	1.80964
-3.52418	4.06696	-0.47599
-1.33978	-0.55682	-2.7568
0.977783	0.560438	1.21047
-2.0418	-2.26633	-2.09998
-3.36622	-1.20839	1.56688
-3.17578	-2.38757	-3.49232
-1.13313	-0.877476	-1.82748
-1.87427	1.31058	-2.84338
-3.65983	-0.468624	-5.44647
7.54388	2.04629	-3.33849
-3.77671	1.62677	1.86041
1.56673	1.3445	-0.653204
-0.988895	-0.109113	3.52584
-2.83125	-0.00163849	0.174542
-2.2568	-1.56083	-3.45255
0.539927	-0.0678647	-3.11051
6.54119	-1.02335	3.04022
3.40469	-1.75884	-3.05366
-4.23099	0.506291	-1.04401
-3.91019	0.563553	-2.59595
2.58072	2.33106	-3.77946
3.25617	-0.116519	1.6978
-0.772092	-7.42377	-2.2623
-4.15247	-2.88736	0.150276
-2.40766	-2.80011	1.44476
-2.67257	-0.0401343	2.04968
5.18176	1.18538	0.705045
-3.17472	0.509161	1.02702
4.69661	-2.89732	1.69361
-3.09665	-0.814592	2.5578
2.67924	1.23049	-1.55225
5.21535	-5.32604	5.38221
4.44246	1.44833	-3.63263
-3.15681	-5.39651	2.48054
2.9399	0.291757	-4.69844
3.27503	0.7307	-0.843563
-5.01097	-1.82625	-2.07118
1.61785	0.857839	3.98411
1.90129	-0.241512	1.25511
-3.64938	-1.11874	1.85012
3.85797	2.18771	2.82541
0.533802	2.92283	-0.273262
-4.7541	-2.73506	3.20209
-3.67877	2.3839	-2.9698
-6.65861	-0.507643	1.11057
-3.18207	-0.426352	1.51745
-4.88049	-3.80634	0.143603
-4.75633	-0.162278	2.72081
1.58276	1.81035	-1.11676
-3.80151	3.86149	3.5667
-4.39011	1.77595	-0.292543
-4.67933	-0.617855	0.623403
0.970433	-1.95784	1.90309
-8.99821	-1.42778	3.63643
1.72491	-1.99368	-1.8385
1.88023	1.22439	7.11363
6.26936	-3.86861	-5.00181
3.43524	-5.02679	1.30968
1.59708	-0.64477	1.59667
4.55832	1.29361	1.33505
-4.34631	-1.14118	-1.72366
-1.99031	-2.44989	-4.24764
1.3839	0.244647	-0.555207
1.82021	1.82336	-0.708876
0.302086	0.338194	3.07055
-0.243025	-0.0234259	-0.612929
-1.68666	1.53969	-1.73335
1.61709	-0.342693	0.96663
2.59964	-1.77277	-0.457172
-1.27773	-0.127328	2.68496
2.81073	1.89811	-1.96034
-1.36982	-0.690767	-0.303484
4.67044	-0.46792	4.09228
1.50053	-1.21844	1.73614
2.7327	5.02441	-2.71728
5.32408	-4.03831	1.22329
-5.63838	0.830102	-1.73966
4.47205	0.695889	5.86423
3.81855	1.4639	-5.52208
-3.28081	-1.40653	-0.30964
-4.46351	2.33856	3.66828
-1.10851	1.54779	-1.02132
-4.2246	2.16161	0.152659
-4.82888	-1.47184	4.32178
-2.51014	-1.52479	3.20769
-5.13432	-3.99092	1.66617
-1.26242	1.05865	3.20406
-4.53742	-0.156877	0.459377
8.93345	-0.991642	4.08894
1.6903	-2.22753	4.72432
1.87498	-1.47994	2.39661
-2.02877	-1.65726	-2.6875
-2.22244	-0.411779	-6.39692
-4.2126	-3.27966	-3.78142
4.31077	-1.63672	-0.365759
-3.07801	0.276359	0.970566
1.04247	-0.355195	-6.85667
2.97586	-0.626484	-1.32933
4.27754	-3.34683	0.424387
-4.51569	0.713723	-5.89623
-3.24532	0.108012	-3.42065
-1.57909	-0.717997	1.59627
3.18488	-0.143323	-0.735118
4.09582	1.99371	-4.69954
0.883658	-1.2106	-1.6498
2.60709	-1.69951	-1.05461
-2.66552	-0.579408	-1.34711
2.66979	0.174443	1.53581
1.38043	0.734385	-0.289359
-4.58737	-0.645825	0.639478
-6.28498	-1.99186	5.11684
-3.62526	-1.20156	6.99355
7.13756	2.79037	1.80852
-4.12063	-0.791447	-0.0495773
0.709893	0.63795	-2.48515
-7.16121	2.43703	-5.37586
3.86959	-4.61054	0.780724
-2.33638	-0.204024	4.88764
-3.63173	1.40552	-2.18414
-8.01489	-1.89234	0.285135
-2.42375	0.720355	-2.96578
1.45862	-1.73641	1.29805
4.25792	2.44825	0.611431
-2.48262	-1.50887	-0.841101
-1.85754	-1.27695	2.2603
-1.79442	1.75076	-0.23615
4.73072	-3.87403	-2.92186
1.84966	0.887874	1.81499
3.40408	2.05569	-5.76479
-1.63854	0.956856	-1.9701
-2.80998	-1.95629	-0.168558
1.23914	0.065125	0.430676
2.92747	3.95703	-2.3577
-3.32776	-0.241065	-2.74255
-5.47556	1.83074	-4.90498
5.69832	-6.391	2.96354
0.953026	0.383032	0.167352
4.34466	-4.41138	4.46985
3.9122	-1.49451	3.98842
-2.09797	0.0102704	-3.21851
1.1266	0.426477	1.843
0.879639	-0.287402	1.10859
-1.97313	0.102737	-1.00245
1.55404	0.745981	-2.59355
1.86957	0.717768	2.74435
-5.50342	5.91301	-1.91934
-6.8342	-0.415153	-1.60524
-3.6336	3.36632	0.684012
-3.54327	3.45453	0.482322
-2.28536	-2.14029	-2.03117
-2.59847	0.281652	2.75775
-5.91661	-1.27048	1.4941
-1.57699	0.666191	-2.355
-4.66261	-0.715952	3.83001
-3.33008	4.05025	-2.3088
5.3329	-5.65129	0.892431
3.00272	0.312045	-9.00267
-1.94446	1.65026	1.43948
-2.22642	-0.739865	-4.8676
-1.06354	0.162976	4.81734
9.18582	2.06285	3.69864
-2.05431	-2.87795	1.499
4.00528	3.78335	7.31802
-1.91831	3.83258	2.28548
0.553988	1.11561	0.357586
1.88745	-2.47727	-2.05602
2.37476	0.78396	-1.54918
3.04953	1.75531	0.436409
-3.73706	-1.35277	0.76092
3.80693	-0.976105	-2.43431
-1.51128	-1.5026	-1.11144
-3.15848	-4.5613	-1.90855
-1.56949	-0.515439	-4.93879
-2.93913	1.18572	3.23176
-4.53276	-2.66895	2.10595
2.63517	-2.68079	0.135619
6.60775	1.57292	1.46094
1.34169	2.79108	-0.311759
2.31996	-0.378302	1.01539
2.33388	-0.340412	2.637
-4.02765	1.29753	-0.784346
-8.28307	-0.236925	-0.588551
-3.92756	0.469029	-1.39435
-3.15409	1.06486	0.0776815
3.94482	2.21656	1.30875
1.57085	-0.665101	-3.63267
-7.14187	-4.04746	-2.76138
2.19734	-4.74429	4.53255
12.8712	2.79132	1.1686
2.72551	-5.27352	4.76883
2.32128	4.68565	1.66943
0.858729	0.247184	0.228384
-5.57956	2.24134	-2.87356
-3.02223	2.15862	3.25034
0.649609	0.313833	1.60513
1.86939	-0.645034	5.07634
-6.82904	0.256453	-1.40186
-4.21876	-6.36537	4.42705
1.25154	0.962927	1.91491
4.74438	2.27562	6.32729
-3.55553	0.66783	-0.160277
1.49232	8.49259	-2.17347
3.03038	-0.566048	-4.40966
1.05993	0.0887431	-2.95938
-2.95036	-0.192762	-0.454693
-5.73709	1.82026	6.4633
2.10933	3.88027	3.4111
6.3841	-5.42253	1.37537
3.05937	-0.563051	-3.50862
6.86364	-1.73203	-3.44071
1.73011	0.213268	-0.968686
-5.12108	5.4283	0.847251
-2.17439	0.438956	0.702668
10.6686	-1.74753	0.208643
2.75808	-0.478474	-0.575692
4.9352	1.81022	-2.72185
2.27653	1.28192	1.19375
-5.15903	1.03875	1.72606
2.29351	2.25878	-0.270032
-5.92473	0.686981	2.33857
1.01271	0.580535	2.25048
2.17452	-1.71841	-6.84552
0.857492	-0.3447	-1.36666
1.60394	1.73566	1.40848
-0.728942	-0.899746	-1.53909
1.59968	-3.12214	-1.05822
2.40028	-1.10264	-1.14495
8.04665	2.96752	2.41554
4.38788	1.31961	1.12722
3.80945	6.97621	-1.73292
-3.14716	1.01285	5.38306
-5.01469	0.565619	-0.852183
-2.06721	-0.298815	-1.96684
2.22396	0.418791	2.78837
5.13786	3.20098	4.95077
2.33219	1.85511	-2.13268
-1.61883	-0.351709	2.83414
-3.46933	-1.58389	-4.25954
0.996451	1.17516	4.94701
1.3964	-2.68608	-0.895616
-6.63783	0.389416	-2.98007
-1.54592	-4.47628	-1.33075
-2.68491	2.54191	0.650466
5.03175	-0.724471	-2.6485
2.70086	2.87825	2.15155
-1.0945	-0.131149	-0.384977
-3.06393	-0.0342545	6.52213
-1.85756	-0.394088	2.08678
-3.90352	1.46745	-4.89887
3.80447	-1.34877	0.185503
-1.99863	-0.189455	0.964626
2.94051	0.249053	0.075475
-2.66958	-1.17871	-1.9941
4.52518	-1.45874	-6.08881
7.84189	1.07922	4.64142
4.18255	-2.31698	0.556508
-2.46217	-1.58337	-1.2085
-1.62417	-1.35236	-0.0647164
4.12836	-5.61287	0.478271
-3.4886	0.0102393	0.725548
5.2832	2.08338	-1.29018
-3.33478	0.840056	-6.65869
2.33748	-0.795144	0.80181
3.9691	0.57361	10.1348
1.65579	-1.74485	2.52219
-4.79918	-4.55278	0.924171
-6.23321	-3.58355	1.18146
-4.67921	-0.163001	-2.30882
-3.73102	-3.20251	0.622473
-2.45256	0.733099	-0.695457
1.61273	0.0451404	3.42291
-1.8239	-0.00443491	-2.908
-1.60496	0.361647	-5.70114
-7.13137	2.69134	0.420582
-2.16341	-0.0705053	5.16077
1.04519	-2.72361	-4.09528
3.63832	-0.74102	-2.51519
3.6846	-1.9364	0.73755
2.14203	-1.09921	0.457848
4.22256	-0.0421977	2.96596
5.03584	0.465795	1.59466
5.31104	-1.97445	-2.24993
-3.2541	-1.2248	-1.28428
-1.35446	4.45424	0.957516
2.48912	1.84943	3.83686
-2.17245	0.367273	-3.04724
-13.0062	0.330933	-4.9031
2.10831	-0.262273	0.896432
7.63964	-2.48572	-2.6673
-3.76028	-4.19941	-4.81166
-3.57943	-1.81331	-2.17659
1.99435	-1.06247	-0.230228
-5.87103	4.86492	6.95774
3.90783	-4.76307	-0.287695
3.48406	-1.46073	3.42416
2.61444	-0.36784	1.80553
-3.50811	-4.73452	6.10728
-2.76656	0.251011	-1.578
4.76552	1.48874	-0.892887
2.89822	-1.61362	1.5292
-0.821544	1.1215	3.16145
3.02787	3.3392	-7.40857
-1.40675	-0.0250082	4.18313
-1.97326	-4.67423	1.24078
2.12643	-4.11488	2.03436
-3.29052	-0.777963	0.637088
1.65054	0.37975	2.10883
4.9584	3.34971	-5.19079
-1.91153	-1.20341	1.96472
-3.099	-1.93147	-2.41234
-3.77353	1.3806	-0.148183
2.8837	1.27587	-0.429039
-8.94252	-1.55651	-6.3394
-2.21353	-0.359408	0.887464
3.37847	-0.746348	-2.9526
6.04576	4.56378	0.169319
-3.63239	-4.34913	2.11241
-9.83724	-1.68123	-5.9308
-7.42163	0.075157	1.48997
-3.45394	-0.5757	-1.25826
5.59684	1.36593	-0.280576
1.1289	0.503759	-1.29112
3.69891	7.45801	3.035
-2.17884	1.19509	0.304412
-3.40199	1.41949	2.16693
5.9586	0.931274	5.50674
-2.42531	4.06336	-3.46776
2.31901	-2.77798	1.07356
5.55571	-3.05954	3.19796
5.93449	-0.227811	2.89281
-0.931924	-0.308409	6.72492
-3.53631	-1.65404	0.559433
-3.53658	-0.830611	2.68931
7.7872	-2.34948	10.8443
3.14435	1.73987	-0.413277
-4.70323	-0.336857	2.08715
1.73089	1.01249	-5.41796
5.4454	2.6936	2.01981
2.23078	-0.389399	-2.04179
-4.60056	-1.69202	1.43564
4.52813	2.64326	0.380638
8.78485	-0.562988	-0.671468
-2.59375	0.25666	-3.60599
-4.70582	0.331854	0.631711
-3.02211	-0.556905	1.72183
3.72298	-4.2718	-0.233305
1.24578	2.15721	3.05093
3.70644	3.79563	0.63581
3.09749	-2.92534	4.06053
8.63113	5.2428	3.43025
-2.787	0.320657	4.63885
-3.52506	1.94956	-3.14748
2.91465	-4.5653	-2.64684
-1.66188	-2.10802	3.31658
4.00187	4.29336	-3.77903
-2.11827	4.3026	2.56457
-4.66685	0.545162	0.204902
-3.00664	-0.613678	-6.3739
2.57189	2.89972	-3.57075
1.69069	-1.24036	2.82962
3.96976	2.1507	3.22942
0.225979	-0.406134	-4.06808
1.6647	-2.93016	-1.18582
1.88952	-1.83115	-2.91615
-1.19214	1.05749	4.37497
4.03192	1.28587	-1.19863
1.95935	-1.01767	-2.69583
2.02767	0.552441	-2.10665
-0.889876	1.19319	-1.82135
4.032	-1.08666	3.30572
3.31506	3.69632	2.52349
1.60751	1.16142	2.2084
3.1539	2.63845	2.81565
2.57702	-1.01494	0.899319
-2.15609	-3.06528	-2.31576
0.923478	1.58072	-2.12373
-3.11884	-1.09432	1.37256
4.95174	0.822004	-1.39854
3.78277	-0.594977	-1.36933
-3.46987	-3.3787	-1.8242
2.22263	-1.11279	1.46858
1.20605	1.08687	-4.68802
4.58776	2.63433	6.95607
-1.20738	-1.0544	3.11084
5.22512	0.536078	-3.83862
4.34345	0.72072	-8.26244
3.33068	0.268547	-2.28984
-3.95498	4.06505	0.751614
1.10633	0.0452638	3.57844
-2.33346	-0.3205	2.0316
6.87213	-3.81253	3.46941
-0.643633	-0.518068	2.93218
2.63847	-0.923925	4.79002
-2.29272	0.162001	3.70658
-0.440341	0.373906	0.945369
-1.89816	-3.46192	-4.92021
-2.76072	1.45334	6.02097
-5.85206	1.41003	-0.39271
-0.723064	0.022398	2.86316
-3.35719	0.753461	-4.46611
-2.89801	-0.818172	-1.66316
3.07171	-0.91196	-4.50269
3.67598	2.88812	1.43067
-3.46471	1.14745	-1.65979
-0.695116	0.732257	-4.58689
-3.68816	2.02116	1.05542
-3.17668	-1.03798	-2.32638
-3.56732	-0.350432	-3.2784
-2.59992	-3.37022	2.13475
1.98398	0.819062	0.45321
1.11881	-0.264078	1.76872
5.70645	4.67028	1.19565
-4.2306	-2.73141	-0.375935
-5.62647	0.357375	-0.217282
5.95601	0.0129345	5.71227
4.01611	-2.9082	-3.7064
-4.11642	1.26461	-3.26375
0.955856	-0.203918	0.274934
-5.29536	0.132435	-1.40543
