-0.370033	0.352755	-1.35674
0.0454313	-0.144045	0.907237
0.123229	1.23893	0.23908
-0.288275	-0.98037	0.267914
0.455418	0.0599224	-0.144253
0.468671	0.181994	-0.589497
-0.190554	-0.447966	-0.54411
0.38479	-0.0443719	-0.326152
-0.552747	-0.0415911	0.444785
1.29446	0.0480968	-0.819491
0.686979	0.741209	-0.427841
-1.2037	-0.759049	0.0794968
1.72511	-0.0666434	-1.0539
0.914248	0.758765	-0.119067
-0.982173	-0.124351	-1.24255
0.188736	-0.389705	0.22186
0.470387	-1.70983	1.40257
1.54635	0.845352	0.0675051
0.478686	0.696713	-0.0665636
0.629859	-0.595525	-0.103832
0.340799	-0.574503	-0.280118
-0.143487	-0.651194	0.0285805
1.38817	-0.157509	-0.206504
-0.935259	0.569302	0.10619
0.0503026	0.465633	-0.00376971
1.33475	0.155725	-0.504522
-0.6925	0.571722	0.880775
1.21541	1.94151	-0.180537
-0.748745	-0.280099	0.0484094
-0.596507	-1.03869	0.230695
-2.22149	0.680218	-1.91348
-2.23786	1.25031	-1.03246
-0.551079	0.342749	-0.576931
-1.23215	-1.70336	-0.461841
0.825125	0.822981	0.38326
-0.711617	0.684373	-0.961344
0.153517	0.551721	1.14504
-1.29069	-2.93406	1.49451
-0.0913418	-0.928281	0.354284
0.182259	1.07157	-1.57522
-2.16307	-0.197275	-0.581626
-1.06846	-0.836146	1.2113
0.884071	-1.34546	-0.122589
0.497741	0.767773	0.135782
0.151717	0.303805	0.100343
0.00562349	-0.298506	0.0348828
-2.65937	-1.56267	1.50462
0.295769	0.650035	0.438513
1.19201	-0.510914	0.811002
0.207715	0.67756	-0.25832
0.771241	0.375619	-0.519492
1.08842	1.04923	-2.28169
0.246528	1.18151	-0.965467
1.40405	-1.08975	-0.624531
-0.582227	0.256408	0.155575
0.935388	-0.429167	2.0626
-0.151646	2.95676	-0.243068
0.62286	0.346793	-0.115675
-0.439431	0.0370159	0.456725
0.0761466	-0.556648	0.467854
1.06493	-1.1518	-1.44377
1.79114	1.10253	-1.76549
0.0906985	0.239078	-0.543845
-0.100278	-0.0171489	-0.605246
0.500029	-1.56299	0.60602
1.7697	0.905929	1.00631
1.07135	-0.696246	-1.27097
0.174706	0.215614	-0.120788
0.124524	-1.38952	0.687747
0.920898	-0.389437	0.474299
-0.851473	0.626483	0.083793
0.8892	-0.913055	0.0102186
-0.235783	0.0283446	-0.589675
0.707728	-1.99704	0.51184
1.43323	0.405258	0.22362
0.0848353	0.449907	0.0166153
0.337592	-0.537141	0.171735
-1.52132	0.870796	-0.528214
0.423606	0.589217	0.137852
-0.603198	-0.536738	-1.32565
-2.2329	2.25046	-0.935179
-1.56088	-0.734151	1.09035
-0.446944	0.896779	-1.04436
-0.48951	0.353236	0.982857
-1.4817	0.23518	-0.511154
0.73006	0.0367701	0.849827
1.20102	0.11046	-0.674979
-1.32655	0.725382	-4.58146
2.15455	0.479022	-0.128832
0.618874	0.147849	-0.479307
-1.09694	-0.0238141	-0.188146
1.71293	-0.269875	-0.0526547
-0.935804	-1.15852	1.12947
-1.42453	0.379445	0.179176
-0.434293	0.0768292	-1.03739
-2.04429	0.94665	-0.74489
0.488747	0.629492	0.300493
-0.466601	-0.845073	-0.655327
0.96024	0.015386	-1.2106
-0.156931	0.63091	0.14887
0.94184	0.76644	-0.245642
-0.241662	0.533105	2.64207
0.323785	-0.800953	-0.257905
-0.957209	-0.59647	0.343262
-1.18796	1.05641	-1.17661
2.50813	-1.58913	1.54608
-1.87886	0.921121	1.61352
-0.524614	1.57976	-0.463373
0.509832	-0.719485	-0.330393
0.583582	-0.413818	-0.403911
-0.00266591	-0.175618	1.2943
-0.686945	1.82766	-2.36753
0.200014	0.0814223	-0.0347544
1.65975	0.101864	0.38488
1.93172	-0.174467	0.96013
0.41538	-0.401003	0.236516
-1.4661	0.132109	-0.690441
1.58837	-0.387133	0.102587
-0.169981	-1.30431	1.03918
0.433144	0.0175967	-0.11215
-0.155876	0.0576138	0.897227
2.20659	1.00321	0.145744
-0.084572	0.254438	-0.300835
1.19371	-0.456946	0.0289774
-1.99791	0.329677	1.34338
-1.30013	0.0731832	-1.18908
-0.0465912	1.33432	-1.45888
1.46006	-0.786056	-0.399671
-1.35737	-0.992753	0.563421
0.684174	0.447949	-0.297419
1.13965	-0.204161	0.187716
-0.225105	0.938789	0.232896
-0.653564	-0.910096	2.50511
0.170119	1.01499	0.822208
0.0555186	1.28667	0.86131
-0.720345	-2.0319	0.214589
0.415247	-0.650275	0.271573
-2.19053	0.386324	1.11627
0.713177	-0.183836	0.52827
0.210661	1.56019	1.21648
-0.0568882	0.066647	0.290043
-0.928684	0.0504304	1.35115
1.11674	0.116578	0.63758
-0.0458727	-1.55164	-0.677089
0.365761	-0.25051	-0.226509
-0.448614	-1.08566	0.759587
0.248014	1.01728	0.996109
-0.535113	-1.07563	-0.755072
0.204237	0.485313	-1.05414
-0.998197	-1.33519	-1.76349
-0.590836	-0.652176	-0.0530126
-0.589879	0.649677	0.536379
1.29899	-1.41095	1.81378
-0.598797	-0.0937459	-0.44677
0.646096	-0.610626	-1.90891
-0.53709	0.981488	-0.701827
0.104604	-0.182216	0.536704
-1.7993	-0.0149918	0.365155
0.377874	1.06186	-0.0801693
-1.074	1.30056	0.15708
-2.05578	-1.69437	0.00476893
0.454627	-0.940694	1.82503
-0.420706	0.458006	-0.603887
0.637249	0.195638	0.262145
-1.31927	-0.240519	0.101625
0.170648	-0.187753	-1.78364
-3.99662	1.24531	-0.210571
1.4588	-0.317498	1.24827
-0.138693	0.668474	1.13033
1.58408	1.6285	0.533021
-0.0386347	-0.639369	0.0623643
-1.81877	1.10279	1.60864
-0.248822	1.53438	1.73325
0.353396	0.373319	0.118697
0.395201	-0.50426	-0.0558883
-0.0418136	0.991187	-0.252403
0.422515	-1.11902	-0.0690719
0.707339	-0.0984613	-0.174152
0.841611	-0.129794	-0.247443
-0.118068	-1.35096	2.44144
0.523528	-0.905995	0.354054
0.949363	-0.31586	0.0304366
0.986839	0.130474	-2.17628
1.28437	-0.508617	0.352044
-0.512747	0.253519	0.392873
0.278027	-1.54883	-1.28515
-1.35134	1.54058	2.1003
0.293464	1.51053	0.724486
0.919341	-1.9255	1.51158
0.380217	-2.42383	1.15059
-0.693284	0.501408	-1.66984
-1.15247	-0.797166	-0.599656
-0.0429374	-0.114122	0.377814
-0.23184	0.546399	0.0804013
0.924558	-1.12904	1.55526
-0.138237	-0.472947	0.644204
-0.813423	0.168288	0.523604
-0.651383	0.242585	-1.02222
-0.20707	-1.13156	0.342277
0.561241	0.446068	-0.262898
0.0738679	-0.334236	0.0919369
0.227818	1.51294	-0.606044
-1.29523	-0.314847	0.553321
0.0677961	0.102569	-0.195455
-1.04368	1.79191	-0.621995
-0.651915	1.12207	0.687625
0.985565	0.607746	0.763185
0.767327	0.623624	-1.79564
-0.363945	-0.172384	-0.12281
-1.32295	0.753783	-0.570644
-1.07545	-0.278638	0.935886
-1.35473	0.884957	0.845639
-1.46757	1.19447	-0.666486
-0.601986	-0.119694	-1.60365
0.00805005	-0.846683	1.16758
-0.709522	-0.120436	-1.03688
-2.31157	0.631847	0.870874
0.219864	0.466218	0.762187
0.577782	-0.507897	-0.442376
-0.211586	-0.830851	-0.439456
-1.73944	0.442387	0.0246796
0.647091	-2.98765	-1.56205
0.552564	-0.0598527	0.0858866
-2.01418	0.110214	-1.64643
-1.54695	-1.78809	-0.391643
1.23612	-1.36797	2.83254
-2.11636	2.60266	1.70561
1.48883	0.47102	1.36221
-0.137895	-0.264595	-0.657924
-1.31951	-0.477284	0.694626
-1.6381	-0.880335	1.26702
0.830029	-0.866155	0.458339
-1.49837	0.905118	-1.29902
-0.412842	-0.325142	0.595246
-0.197778	1.02716	-0.0431318
-0.00447057	-0.239122	-0.289547
0.325939	-0.776014	0.035018
-0.834387	-1.15537	0.616803
-1.12063	-0.84101	-1.01195
-0.320128	0.177708	0.504261
-0.182982	-0.330277	-0.575819
-0.177472	0.459632	0.0725364
-0.347196	1.24269	0.0801812
-0.601078	-1.27915	1.09707
-0.383685	0.659742	-0.22976
1.24216	-1.08358	-0.149572
0.242134	-0.684416	-0.427329
0.0709957	-1.03691	0.884567
1.61019	0.403002	0.985506
0.595929	2.43044	-1.9356
-0.406134	-1.51963	-1.10068
0.695567	0.333209	0.45419
-0.208386	0.180894	-0.18201
-0.193099	-0.0386313	-1.11618
0.45546	0.0971905	0.456459
-1.36026	0.020036	-0.541924
-0.25632	-0.546938	-0.361427
-0.320941	-0.902949	-0.381635
-0.581246	2.3829	-0.971744
0.491411	-0.221255	0.967451
-1.13608	-0.0580102	0.151806
-0.62605	-1.84697	1.07256
-0.543622	-0.19863	-0.149941
-1.48446	-1.04855	0.970065
0.460254	0.305228	-0.437015
-0.466545	0.288244	-0.199872
0.837449	0.00179577	-1.98576
-0.1847	2.357	0.022618
-0.779258	0.149798	0.213162
1.42798	-0.807482	0.906784
1.44384	-0.775285	-1.39315
0.93202	0.105456	-0.149519
0.607978	0.0241954	0.363454
0.369759	-0.270089	0.501074
-2.27469	-0.834996	0.667364
-0.316725	-1.27249	0.485399
-0.262736	0.16269	-0.0436247
-0.694746	-0.307661	0.825537
0.579465	-1.89969	-0.0230182
0.201736	-0.158079	0.830846
-0.350444	1.33039	-0.779599
-0.262233	0.235149	-0.381219
0.887133	-2.08477	1.72658
-1.30356	-0.467321	-0.206504
1.12927	0.330451	2.13127
-2.92269	-0.957275	1.5543
0.0758761	-0.118292	-0.127467
-0.954977	0.233811	0.944942
0.18442	-1.12029	1.58988
0.319098	0.548575	-1.12829
-0.735443	0.320149	-1.58062
-1.96772	1.3533	-0.444079
-1.04328	1.41099	1.1665
1.57553	0.399996	-0.312129
-0.127456	-0.496835	-0.795281
0.0536294	-0.666755	-0.61914
-0.158603	-1.10422	-0.460759
0.947894	-0.00313168	-0.433684
-0.0878897	-0.296665	-1.12412
-0.343865	0.6342	1.46906
0.509652	-3.37584	-0.877061
0.486688	-0.854525	0.295473
-0.0768606	-0.266588	0.516618
-1.35665	-0.480465	-1.67409
-0.670157	0.686767	-0.37989
-0.389042	-0.0149928	0.103147
0.0569218	-0.605455	-0.49143
0.462518	-1.04776	1.07058
0.0867036	-0.814442	1.60154
-0.028538	0.611617	0.294213
-1.23496	1.94277	0.013529
1.02426	-0.921487	-0.956902
1.09736	0.860304	0.0419046
-1.41861	0.73729	0.567255
0.089142	-0.0643371	0.133253
0.454904	-0.382119	0.241199
-0.131979	-1.46292	0.00829375
-1.32737	1.04304	-0.665055
0.902668	0.795974	-0.193573
-0.208392	1.31421	-0.184833
-3.11442	-0.925575	-5.9401
-0.314061	1.03134	-0.0759628
-0.483395	0.0417832	-0.300864
0.984906	0.530295	0.583353
0.565277	0.0181637	-0.287857
-1.95438	-1.96834	-1.69444
-0.892274	-1.38021	-0.380693
1.02636	0.0659552	-1.59258
-0.549121	-0.369574	1.03679
-1.72612	-0.194135	-1.4471
-1.89965	1.75877	-1.65002
0.250833	0.156574	-0.0686415
-0.764316	-0.0422441	2.15564
0.742629	0.945373	-1.6494
-0.245923	-0.975657	-0.326327
0.068276	-0.0915413	-0.354384
-2.09288	-0.0803998	1.24756
1.47117	1.24798	-1.55134
1.27786	-0.74087	0.108595
-1.03523	-0.906386	0.483116
-0.164754	0.363052	1.04306
0.108058	0.0152726	-0.13154
2.28553	-1.68516	2.02418
0.298444	0.145997	-0.225941
-1.55519	-0.463812	-0.982965
0.382819	-2.66979	3.19521
-0.331052	-0.988106	0.0368257
0.101494	-1.33156	-0.805473
0.348744	0.510867	0.795085
-0.291149	1.03515	1.01927
1.21862	1.60855	-2.31083
-0.597155	0.823748	-0.88796
-2.15466	0.0739747	-1.64726
0.0502979	0.36589	-0.100894
-0.928665	-0.189015	2.24752
-0.178122	-0.397141	0.654324
0.386544	0.902134	-0.920137
0.480929	-0.852382	0.228197
0.47449	-0.21254	-0.78288
0.788201	-0.479863	-0.223588
0.842596	-1.8368	0.306604
-0.115803	-0.214561	-0.262939
0.00628151	1.23612	-0.104616
0.123065	-1.62346	-0.255845
-0.0859583	0.143845	0.166063
-0.230214	-0.941242	-1.03072
0.310057	0.0994772	1.66935
-0.449768	1.25642	-1.31266
-0.595517	0.196213	-1.1965
-1.76553	0.190161	0.715749
1.00295	0.641469	-2.14192
-1.99644	-0.129716	0.83103
0.908816	0.0128359	-0.0645098
-0.310426	-0.529565	-0.113803
-1.1081	-0.270634	0.887245
2.30272	-1.41935	-1.44992
-0.0180481	0.296499	0.0184716
-0.624697	-0.387961	1.00111
-0.64825	1.11749	0.431777
0.136536	-0.347273	-0.824434
-1.36144	-1.78087	1.18594
-0.195504	0.477295	-0.030013
-0.0501692	0.10466	0.228623
-0.233989	-0.995498	0.732703
-2.47011	-0.438244	-0.346581
1.05277	0.352583	0.618847
0.644858	0.437502	1.43164
0.861666	-0.731031	-0.414271
0.277091	-0.890514	0.153826
-0.270031	-1.29852	0.557724
-2.1921	2.30305	-2.91953
-1.62416	-0.369244	0.0452617
2.7057	0.229011	-2.73897
-2.30677	-0.781013	-0.128671
-0.903393	-0.997646	-0.926701
1.02588	-0.37165	-1.78796
-0.265351	0.91681	-0.422535
0.00867545	-0.246192	-0.627503
-1.97544	1.37864	-0.347566
0.327831	0.225557	0.63047
-0.259759	-0.0394042	-1.21099
0.623415	-0.41905	0.211518
-1.23455	0.488424	0.199625
1.24479	1.01494	-0.245498
0.659235	0.0560182	-0.27814
-0.585288	0.585637	1.34109
-1.8813	0.0840709	1.79383
-0.612462	-1.0055	0.579586
-0.401811	0.533497	-0.0297913
-0.139091	-0.848674	1.1458
-0.780408	0.548769	0.430628
-0.828764	-1.9109	-0.0532417
1.91225	-0.337532	0.740332
0.240872	0.150142	0.37706
-2.92507	2.30691	0.289214
0.850604	0.52549	-1.60204
-0.15178	0.0623232	1.11727
-0.441323	-0.667847	-0.204847
2.07492	-2.0692	-0.265171
-0.555928	-0.144575	-0.272535
-1.21482	-0.11446	-2.85343
0.0646963	-1.46423	0.730132
-4.23252	-3.87377	-0.79536
-0.568279	-0.72262	-1.40059
0.329057	0.124456	-0.21142
-1.85363	0.683103	-0.129899
0.524874	0.593865	-0.69525
-0.249745	0.744186	0.249433
1.34866	1.96179	-1.33486
-0.217129	-1.94651	0.124687
0.378827	0.355209	0.573933
1.27144	0.267453	1.99169
0.872438	-0.802475	-0.862624
1.1303	0.475741	1.00762
-1.23312	1.01467	-0.967005
0.00780209	-0.143247	-0.477679
0.3254	0.148511	-0.205036
-0.413023	-1.02479	-0.831357
-0.142647	-0.976567	-0.822313
-1.89256	-0.997364	1.02787
0.552699	-0.0320625	0.467187
0.481855	-1.43976	-0.916186
0.344028	0.514352	-2.31032
-0.677778	-1.33488	0.453289
1.80215	-1.76203	-0.992122
-0.576473	0.951876	-0.681392
0.106553	0.522861	0.330702
0.881685	1.05313	-0.925693
0.227643	0.731193	-0.346145
-0.109188	0.96233	-0.622933
-0.264041	-0.19502	0.263505
0.20438	-0.346211	-1.37049
2.08423	-0.69927	-2.07406
0.107437	-0.497862	-0.466424
-1.81359	0.0961652	1.76678
0.531571	-1.00604	0.499642
-0.469578	-0.427803	0.487704
-0.202477	0.381296	-0.0965767
-0.551989	-0.217718	-1.59518
-0.653235	0.933356	-0.468666
-0.486948	-0.10584	0.271669
0.67007	0.499139	-0.23833
-0.506855	-0.140221	-0.364228
-2.74857	-3.87012	-0.64611
-0.0790643	-0.674379	-0.985616
-1.5479	0.15096	0.483103
-2.08258	-0.529045	0.293748
-0.52217	-0.573471	0.020152
0.0181512	0.174847	0.886773
-1.47623	0.400658	-0.847145
-0.838746	-0.76618	0.679101
-2.11203	-1.11527	0.78871
-0.477316	-0.60743	-0.226209
-0.159229	-1.26878	0.214774
0.400132	-0.0570496	1.94864
0.326009	0.99323	-1.45647
0.0243422	0.261093	0.390093
-0.411804	-1.90827	-0.175025
0.525964	-0.793928	0.394695
-0.303773	0.811007	0.033256
-0.569766	0.21945	1.28032
-1.68716	0.136408	-0.741747
0.312329	1.04291	-1.00303
-0.634103	-0.387773	0.0872095
-0.150596	0.268382	-0.371368
0.227586	0.690295	1.46924
-0.201039	0.694673	-0.290726
-0.0778919	-0.753809	0.221167
0.178299	0.702783	1.11679
-2.16838	1.08923	-0.989817
0.303992	-0.647503	0.227087
1.38356	1.42878	-0.446763
0.384457	-0.714767	0.882669
0.120349	0.640156	-0.618877
-0.411731	-0.437166	0.151349
1.75008	-1.51415	-1.3356
0.312071	1.12246	0.590292
-0.140108	0.00497557	-1.14305
-0.113936	-1.78916	1.79334
0.175238	0.316276	-0.0716654
-0.601741	0.45833	-0.879227
-0.504952	0.466583	0.206123
-0.0615334	-0.793292	0.288629
-0.208804	0.748975	0.545527
2.4987	-1.14633	-2.21122
-0.0201754	0.941527	-1.13978
-3.49787	1.04292	-0.626286
0.0909312	-0.121614	0.118782
-1.63792	-1.48967	-0.293889
0.302414	-0.417175	-0.724131
-0.518222	-0.931469	-1.24337
0.389716	1.53049	-0.971755
1.79271	-0.313164	-0.416296
0.470643	0.338328	-0.476175
-1.0713	-0.0476775	0.429186
0.365963	0.129154	-0.439698
0.0632368	-0.111397	0.217595
0.921366	-0.146322	0.71513
-0.423283	-0.353937	0.159097
0.0873855	0.540522	0.33914
0.425287	-0.41777	1.2302
-0.0202468	-0.109236	0.22286
-1.69322	-0.588496	0.0282953
0.714867	-0.653516	-1.02232
-0.433339	-0.244901	-0.692733
-0.0809686	0.637663	0.510019
-0.290238	1.24867	0.748778
-0.0523997	0.304155	-0.465435
-1.53395	0.555995	0.694681
-0.0866868	0.548969	0.272002
-0.248646	-0.237395	-0.818931
-0.219247	-1.83062	-0.879356
-0.551891	0.13559	-1.75438
0.895961	-1.63818	-0.68389
0.300682	-0.103347	0.146869
2.53066	0.00129925	-0.102019
0.250553	0.728383	-0.111795
1.00604	1.05191	0.71347
0.790417	0.313027	-0.528384
0.477157	-0.59786	-0.0972457
0.00703394	0.875068	-0.951327
0.8288	-1.32678	-0.740353
0.21807	-0.317656	-1.40486
2.61531	0.471893	1.08448
-2.52203	-1.08457	-1.09913
-0.412297	0.0922607	0.371733
-0.656742	0.145725	1.52469
-0.219249	-0.462119	-0.300896
0.729261	0.777263	1.06644
0.666836	-0.479867	0.00476113
0.63514	0.53159	-1.20037
0.632799	-1.14699	2.34821
1.99764	0.650791	-0.0781793
-1.81246	0.0799098	-0.457956
-0.584378	-0.303562	-0.692984
0.333487	-0.699494	-0.157353
0.153826	-2.50465	-2.06664
-0.0451133	0.32344	0.0301107
0.343533	-0.0322239	0.0897295
0.2159	0.746947	0.411632
-0.236858	-0.512416	1.39503
0.0294417	0.0826356	0.767106
-0.759734	-0.237306	-0.364209
0.229372	-0.722246	-0.764879
-0.762526	-1.03598	0.479113
-0.358749	-0.864675	-1.02785
-0.867483	0.60204	-0.301057
0.651464	-0.296915	-0.0412215
0.451404	0.468157	-0.404184
0.23197	-0.591164	1.01047
0.2453	-1.97416	3.22668
0.0790676	0.902164	0.674463
0.196468	0.738763	1.04553
0.317959	0.208169	-0.363535
-0.466956	-0.329688	1.21686
-0.0129347	0.0350609	-0.932975
0.602722	2.88111	-0.27059
-0.436883	-0.034329	-0.186338
0.540182	1.04647	1.36505
-0.406054	-0.0878035	0.424498
0.175319	0.439713	1.13383
-0.26476	-0.618397	1.10901
0.111678	0.9641	0.294868
0.223487	0.443979	-1.26924
0.778739	0.215641	-0.866258
-0.108071	1.09113	-1.04798
-1.45012	-1.09566	-0.909837
-0.0767482	-0.505965	0.146801
-0.645087	1.24075	-0.369595
1.09836	0.827471	-0.075802
-1.25417	1.42098	-0.0761157
0.407752	0.316726	-0.549394
0.582917	-0.181379	-1.50332
-0.948443	-1.49895	-1.31382
-1.08452	0.711971	-0.185033
-0.714418	0.594121	-0.4466
-0.03983	-0.774163	0.554949
-0.277646	-0.769994	1.53377
0.160567	-1.29673	-1.7255
-0.279574	0.0327011	0.344815
0.199698	0.722397	-0.389874
0.523711	0.0206372	0.0151628
-0.838462	-0.292537	0.113536
0.866629	2.08806	0.108442
0.655612	0.92806	2.15889
-0.350641	-0.375884	-0.701174
-0.665226	0.992787	1.60812
-0.856852	1.83677	-0.39029
0.948026	-0.549375	0.0555115
0.0650354	-1.03538	1.22144
-0.305513	0.225849	-0.532916
1.14627	1.25629	-0.28944
-1.29405	0.522711	-1.71212
0.0102332	-0.422505	0.79159
-0.536198	0.0573581	0.196901
0.619836	-0.136495	1.61048
0.507507	-0.0929634	0.11087
0.759664	-0.554011	-0.278872
-0.737178	0.408057	-1.96365
-0.804739	0.630278	-0.556729
0.315987	0.716913	0.311837
-0.492653	1.03425	-1.23516
-0.0218934	-0.23972	-0.728835
0.0917596	1.81611	0.988724
1.1031	-0.428882	1.41695
-0.701296	-1.76505	-0.548734
-0.693637	-2.58319	2.35107
-1.70462	1.4482	-0.598449
-3.35952	2.14366	-0.324866
-0.561996	0.933757	-0.0937553
0.539167	-1.84029	0.460302
-0.342022	-1.70036	-2.40946
-0.651658	0.459647	-0.724768
-0.812556	-0.59498	0.0470395
-1.07768	-1.84671	0.388858
0.745938	-0.0766161	0.644095
-0.576618	-0.083616	1.26198
0.677335	-0.0644338	-0.720554
0.692162	-1.16091	-0.169187
1.1211	-0.194727	-0.154777
1.31699	0.798073	-0.375074
0.402465	0.327181	0.983017
0.22428	1.57603	1.86968
0.797871	0.524145	0.615057
1.88683	0.627535	-0.373615
-0.0890505	-1.64038	-0.342613
0.532894	-0.850362	1.90498
0.472936	-2.69663	0.48794
0.77803	-0.29874	0.686456
-0.14064	0.196771	-1.12135
-1.34459	0.151771	-0.203258
0.233549	-0.236806	0.594224
-0.0685413	0.207455	-0.463546
0.497959	1.62411	0.295569
-0.659201	1.12845	0.128864
0.456983	-0.230384	-0.624699
1.17865	-2.49529	0.794399
-0.353893	0.846306	0.606004
0.443507	0.427949	1.36131
-0.686917	-0.710992	0.456914
-0.27324	0.501175	0.82243
-0.619973	0.445132	-0.703624
-0.847566	-0.617363	-0.490317
0.551706	0.365921	0.576748
-0.0582209	-0.781399	-1.77337
-0.149085	-0.376201	0.713098
-0.515088	-0.674942	-0.283523
0.740587	1.53723	0.674844
0.924966	0.287955	-0.633435
-0.8057	-0.573457	0.0320291
0.209252	0.553745	-0.0362349
0.420967	-0.0661209	0.717751
-1.87205	2.22317	-1.19849
0.139717	-0.668098	-0.513124
-0.348207	-0.322483	-1.1701
1.24652	1.21658	-0.772486
-0.200393	0.371825	-0.393253
0.570252	1.13847	-0.95259
-0.602158	0.0280109	-0.561676
-1.7946	-1.89832	0.128804
-0.68862	1.03245	-2.1683
0.417615	-0.871445	-0.553763
0.561587	1.23017	-0.304861
-0.893107	-0.00426619	0.221086
-0.499722	0.138703	-0.556003
-0.206798	0.652149	-1.00097
0.454623	-1.90525	-1.25195
1.07751	0.339049	0.0949724
0.201879	-0.257243	0.328675
-0.106987	-0.70406	2.19332
-0.950572	-0.737029	-0.49707
0.599212	-0.784607	0.399836
0.385571	-0.885064	-0.847301
-0.848268	0.492566	-0.403033
0.438306	0.0253399	1.95959
0.937205	0.768252	-0.30113
0.556102	0.168391	-1.31392
0.123102	0.657649	-1.07808
-0.0359689	-1.31034	0.339527
-0.236468	0.709581	0.134398
0.204493	1.14337	1.76759
0.254565	0.204873	0.891111
1.76832	0.246349	0.173891
0.338675	-0.577662	0.918835
-0.0485469	-1.69326	1.99467
-0.149381	-0.073609	-0.712853
-0.408767	-1.05055	0.140504
0.390336	-0.135951	0.671465
0.709141	-2.06648	-1.05788
0.66908	-0.0938964	0.15911
0.0824378	0.373994	1.14067
1.00636	2.3399	-0.518806
-1.71511	0.910273	-0.646967
1.1956	-0.424642	-0.4815
0.471668	-0.534458	-0.690223
-1.06974	0.725191	0.930585
-0.233504	0.197692	1.11016
0.97983	-1.02126	-0.938398
-0.0823713	-0.355179	-0.0965592
-1.28924	0.754885	1.17408
1.94108	0.440299	0.138689
-0.201307	-1.82987	0.2746
0.296128	-0.536204	-0.60813
-1.54951	-0.0549971	0.17241
0.549978	-0.772137	1.15911
0.237843	0.855992	1.54724
-0.488252	-0.806116	0.389384
1.40159	0.0669248	0.0226505
0.952894	-0.327699	-1.14995
1.15778	0.719495	1.49513
0.282643	2.55437	0.627367
0.854236	0.384847	-0.690129
0.866548	-1.17298	1.05108
1.88948	0.00331044	1.26011
0.331243	-0.362711	-0.586431
-0.262791	-0.274024	-0.158239
1.49386	1.28297	1.23619
2.17972	0.656134	1.32954
-1.1854	-1.20055	0.11529
0.447881	1.95941	0.270954
-0.166125	-0.481447	-2.16006
-0.962785	-0.260493	-0.65282
-0.327993	-0.807861	0.0412733
1.89857	0.212571	-0.574781
1.07006	-0.195314	-0.83328
-0.174503	-0.273052	0.200522
0.555163	1.34078	0.99439
0.534026	-0.56237	-0.523812
-0.0191686	-0.597613	1.6575
-0.441225	0.564793	0.565932
0.0357665	1.1903	1.26281
0.0394802	0.291764	-0.125382
-0.164254	0.0890087	0.57667
-0.592441	-0.132171	-1.84441
1.47072	0.199787	0.767131
1.03861	-0.183353	-0.510451
-0.657369	-0.796064	-0.803217
0.0074267	0.0990778	-0.932173
-0.541393	1.31911	-1.15624
-0.504315	0.114342	0.338231
0.161032	2.03268	-1.47378
0.884362	-0.607455	-0.548804
0.64726	-2.93428	1.33709
1.5324	-0.247874	-0.908126
-0.0746677	-0.258025	-0.107925
0.404616	0.449842	0.231244
-0.0588848	-0.79272	0.0426183
0.0251085	-0.53606	0.503254
0.528134	1.24467	0.0812513
-2.22749	0.322254	0.556495
1.32161	-0.722261	0.993821
-2.40907	-2.26032	0.321385
1.062	1.22805	0.0770209
-0.0345481	-0.33706	0.833556
0.147147	0.588498	0.99441
0.923932	0.65524	-0.624466
-0.954951	0.450193	-3.75249
-1.16636	-0.162116	-0.674334
-0.314111	-0.732455	-0.586155
-2.68351	-0.193468	1.12184
1.9375	0.391474	-0.0568848
-0.582433	-0.059993	-0.217739
0.677066	1.23031	-1.50145
0.163231	-0.873765	-1.43328
-2.35308	1.08543	0.139798
0.323498	-0.156484	0.4877
-2.09671	1.4903	-4.29897
-0.29951	0.742276	-0.78384
0.864081	1.5268	0.605715
1.75554	1.50848	1.57966
-0.660659	0.0329494	0.204266
-0.559378	0.445819	-1.33292
-0.0345938	0.889798	-0.590586
-1.01407	-0.167729	-0.156404
-0.317974	1.30423	0.547574
1.02679	0.283208	0.15948
-1.83793	1.08146	-2.54355
-0.321069	-1.00566	-0.564482
0.0513358	-0.703893	0.201635
1.36071	-0.905265	-0.650152
-0.198871	-0.0251153	0.365854
0.447068	-0.660463	2.1157
0.742959	1.55	0.46614
0.144177	0.257273	0.334381
0.157079	-0.252543	-0.256585
0.766251	-0.538074	-0.941827
-2.15843	0.207529	1.32617
2.4026	0.768194	1.16047
-2.37398	-2.09511	2.92773
1.27104	0.849773	0.279646
0.591427	-0.491506	-0.66589
-0.100249	1.17915	-0.323324
2.14047	-1.07619	1.85481
-0.390949	0.659524	-0.532004
-2.19177	1.12039	0.232716
-0.368499	1.821	1.2258
-0.0613494	-2.27467	-0.846515
0.446544	-0.14101	-1.00712
-0.514563	-0.330888	0.177651
0.167945	-0.998307	1.26548
-0.0340117	-0.0195137	0.332337
0.119452	0.500646	-0.183203
-0.158866	1.49122	1.21737
-0.264004	0.889218	0.418138
-1.1629	-1.10476	0.497415
0.343944	0.00227238	-1.39623
-0.858973	-0.0785874	-0.328595
0.651498	0.976218	-1.74385
-0.132957	1.14152	0.040276
-0.300302	0.397591	-0.789012
-0.157309	-2.00728	-0.00441222
1.28754	0.362797	0.861993
0.726154	-0.449739	0.861834
0.311263	2.80201	-1.20992
0.134717	-0.942202	1.9842
0.688139	-0.159153	0.614831
-3.16786	-2.81301	-0.560716
2.63527	-1.6664	0.447277
-0.749627	0.00719974	1.24459
-0.997997	0.164199	-0.028512
-0.613842	1.60856	-0.346032
-2.45835	0.362048	-0.156768
0.0123131	-0.271251	0.642767
-0.557036	0.418293	-1.43181
-0.0984906	0.0324206	0.224194
-0.966842	-0.908306	0.883034
0.239779	0.351524	1.16581
-0.959078	-0.838274	-2.03212
-0.0305268	0.364564	-0.215008
0.722191	-0.127375	0.696041
-1.90591	-1.76384	3.42448
-0.862457	-0.154959	0.934258
-1.44327	-1.06781	0.185809
-0.0614569	-0.350657	0.76863
-0.527685	-0.266103	0.631645
0.0852111	-1.63714	0.875414
1.09483	-1.18594	0.0696356
-2.55959	-1.29277	-0.624179
0.960115	-0.0183324	-0.331245
-1.50927	-0.344209	0.579414
-1.6683	0.315434	-2.24335
-1.05118	-0.928308	0.325776
-0.314497	-1.21925	0.257844
0.647726	1.61213	0.916783
0.196521	1.02768	-0.0919605
-1.20814	0.171777	0.219617
-0.131565	-0.0638826	-0.200781
0.0139887	0.416098	2.26849
0.902135	-2.87149	-0.727767
0.805932	2.08243	0.00992653
-0.505748	1.29204	-0.311613
0.866499	1.19796	-0.224305
-0.124175	-0.0926156	-0.365593
0.856579	2.73373	-1.69484
1.00694	-0.642255	-0.0350456
0.756758	-0.767896	0.732042
1.19503	-0.447852	-1.26607
0.51916	-0.0302151	-1.13938
1.11154	0.577681	-0.616747
-0.340341	1.1132	0.0801538
1.09923	0.0505742	-0.499519
-0.616405	0.42885	-0.740685
-0.158194	-0.474543	-0.130021
0.343445	1.05737	0.383339
0.455001	-1.16303	-1.82169
-0.174891	-0.099238	0.0877585
0.228471	-0.461227	-0.189236
-0.975819	-0.0914303	-0.710083
1.04201	1.45275	0.216305
-0.542503	-0.163265	0.877409
-1.13364	-0.418885	-1.01108
1.04536	-0.437797	0.449629
0.560931	0.719995	-0.447227
-1.87193	0.675616	-0.286032
-0.114282	2.1924	0.055712
0.483994	0.551572	-0.952176
0.252551	0.555928	0.215854
0.97761	-1.05936	0.3821
1.77435	0.58303	-1.34265
0.473523	0.553162	-0.28226
-0.64278	-0.544994	-0.798701
0.852243	-0.571398	-0.35638
0.31867	-0.610118	0.638096
0.511571	0.0112335	-0.914042
0.267641	0.872574	-0.225902
-0.472706	0.798115	0.143023
-0.173203	0.37285	0.491173
-0.620748	0.438219	-0.0123315
-2.08998	1.28073	-0.0302771
0.221778	-0.49492	1.16701
-0.439204	-0.268413	-0.463793
0.241574	-0.0923946	0.371233
-0.514213	-0.0836825	1.31357
-0.315339	0.358429	0.02269
-0.227346	-0.094938	-0.76317
0.378974	-0.400941	0.374767
1.79911	0.274078	0.309873
0.0999177	0.559728	1.18858
-0.431147	-0.816965	0.42396
-0.420735	-0.241404	0.169341
0.399322	-0.372476	-0.452749
-1.15328	-1.33776	-1.22766
-0.970936	0.542571	0.0363133
0.278023	0.747451	0.183077
0.191901	0.792034	0.600628
0.216714	-0.685801	-0.748877
0.636274	0.314118	0.382393
-0.255826	1.04819	1.49551
0.0743072	-0.663409	0.883701
-0.180935	-1.40466	-0.531951
-0.479641	0.330683	-0.617126
0.556029	-0.721069	-1.16648
-2.92911	-1.32835	-1.3719
-0.379561	0.00921852	0.169307
1.40041	-0.133836	-0.594847
-0.185849	0.546331	-0.123984
0.376675	-0.0275293	-0.235304
1.00057	-0.137139	-0.347335
-0.301079	-0.500108	-0.0863382
0.988835	-0.449314	0.795357
0.134538	-0.4495	0.186004
-0.173805	-2.4638	-0.49548
-0.695065	0.00431521	0.735119
0.67562	-0.585005	0.54626
0.0959404	0.57866	0.582792
0.338239	0.367065	0.381782
0.84546	-0.360961	-0.658769
0.60203	-0.218432	-0.57652
0.634045	-0.90116	0.572097
-0.982642	2.72113	-0.40615
0.430546	0.0899304	-0.246719
-0.71158	0.568132	-1.36722
0.554978	-0.210019	1.59181
-0.43527	0.165543	1.19744
1.00811	-1.81164	-0.363551
2.79042	3.24851	-3.31601
1.35586	-1.63655	0.742505
0.833844	-0.186282	-0.0110281
-0.766288	0.62368	0.391278
0.497066	-0.395356	0.465509
0.287893	-0.464159	-0.303595
0.15804	0.421532	1.08821
-0.145087	0.0324967	-1.49487
0.272417	1.87048	0.9442
-0.45461	-0.381047	-0.460445
0.223338	0.300512	-0.440544
0.379825	0.225368	-0.162827
0.709229	-1.05715	0.885433
-0.0140837	0.789974	-0.129219
0.00530488	-0.397234	1.11909
-0.234172	0.998235	-0.548781
0.191662	-0.0799075	0.591602
0.0045189	-0.97694	-0.340512
0.142554	-0.102092	-0.999731
1.05283	0.0418664	0.690205
0.0371129	-1.22	0.0173233
-0.653225	2.47887	0.56383
0.206701	2.96033	-0.736076
1.92736	-0.70115	0.316104
-0.666204	1.57547	-0.529771
-0.659147	-0.536172	-1.27029
0.407871	-0.0472396	-0.200716
0.459648	-0.481731	1.24062
-0.152676	-0.079496	-1.39727
2.04736	0.174867	0.896465
-0.0841192	0.0528341	-1.14349
0.683848	-0.862417	1.33201
-0.134409	0.528947	-0.196976
0.0943266	0.0599269	-0.0133115
0.453143	-1.87602	0.704053
-0.183588	0.55321	-0.193475
0.844072	0.291995	0.0307875
0.652265	1.23881	-0.243817
-0.471059	0.795554	-1.40516
-0.701926	0.565518	-1.52072
0.134637	-1.62346	1.23701
-0.481945	0.35139	0.110518
-0.864485	1.4876	0.776984
-1.05917	-1.45112	-0.718712
-2.01961	-0.685084	-0.677221
0.190233	0.371615	1.82855
-0.347475	0.164106	0.0742903
1.12261	1.2419	0.222918
-0.737237	0.283631	0.45569
-0.18526	-0.75654	-0.925485
-0.934535	1.20595	-0.207497
-0.647279	1.5014	0.111603
-0.351511	1.74195	-2.22722
-1.10058	0.827738	0.134921
0.948116	-0.753121	-0.0785655
1.00855	0.036729	0.481653
-2.18653	1.23275	2.36443
0.448534	-0.291144	-0.589709
-0.331763	1.61079	-0.620292
-0.400413	-0.275792	0.00932408
-0.181997	1.09652	0.556678
-0.158528	0.409109	-0.383124
-0.255242	-0.245619	0.272779
0.321929	0.354368	-0.85064
0.15018	-0.0200684	0.166547
0.0460467	0.726832	-0.974388
0.17575	0.547537	0.0216193
1.11557	0.43645	-0.198198
-0.142081	1.03734	0.384699
-1.59731	0.171607	-0.551646
-0.662737	0.384803	0.805167
0.170797	-2.41301	0.318539
-0.90516	1.31261	0.422159
0.09877	1.20245	-1.68721
-0.110909	0.0393169	0.192489
-2.2173	0.698277	0.929815
-1.38663	1.89725	-1.01704
-0.414947	-0.0261902	-0.0135744
0.0666262	0.942896	-0.188663
1.88128	0.561127	-0.358258
1.01941	2.10476	0.648103
-0.391014	-0.695158	-0.974668
-0.998324	0.0998601	0.0804151
0.921026	-0.919557	-0.370103
2.0086	-0.483798	0.820676
-0.199984	1.46725	0.872946
0.00935653	0.62529	0.587336
-0.672769	0.392673	0.484215
0.672111	-0.392508	0.540972
0.861518	0.667056	-0.43623
2.157	1.7169	-0.948175
1.21116	0.524702	1.19153
1.71635	-1.96763	-2.15509
-0.509073	-0.686113	0.793409
1.69035	-1.70837	-1.0558
-0.0202431	0.275788	0.263487
-0.861078	2.23544	-1.77731
-2.61131	-2.53623	-2.8675
-1.20228	0.714427	-0.43394
-0.152344	-0.343721	-0.401305
-1.08414	-0.93042	2.16343
0.136484	1.95926	-0.432269
-1.41728	0.103142	0.445098
-0.246668	-0.279459	0.783591
0.0146656	-0.470727	-0.38092
0.118604	-0.507352	-0.526614
-0.797725	-0.205698	1.16654
0.560792	1.09938	1.0293
0.751541	1.04271	0.193342
-2.62175	1.00018	0.439212
0.105971	1.19899	-1.45673
-0.23121	0.121263	0.731932
-0.529297	1.05039	0.779139
0.119732	0.390413	0.0192544
1.23782	0.599459	-0.140039
-0.151329	-0.161592	0.146283
0.547715	1.59632	0.37385
2.67562	0.0371806	2.14434
-1.10455	-1.81548	0.441024
-0.100102	0.648094	1.32893
-1.09003	0.54481	-0.537843
-0.682795	-0.691521	2.57248
-0.712208	0.654885	-1.83261
1.0162	-0.344787	0.874442
-0.372116	-0.731764	0.436329
3.05138	-0.275874	2.47055
0.628165	1.04663	-0.232682
0.790296	-0.482727	-0.973967
0.462018	0.0332854	-0.0821428
0.552898	-0.670446	0.545512
-0.339453	-0.271795	-1.6434
-0.877039	-1.45502	-0.315505
1.39391	-0.539578	-0.872153
0.471732	0.11677	-0.616854
-0.698922	-1.49624	-1.6638
-1.73712	0.489895	0.0512446
0.273159	0.590522	-1.06665
3.09545	-1.26045	-1.85693
-1.76678	-1.08455	-0.0393999
1.31564	0.773202	-0.0377743
0.294865	0.00741808	0.112573
0.294484	0.209441	0.344054
0.857735	-0.684183	0.212618
0.0813612	0.086237	-0.296843
1.00827	0.265959	-2.09474
-0.532631	0.468743	1.52781
-1.58776	-0.953471	2.02848
0.872063	-0.304427	-0.241519
-1.67236	-1.22567	-0.50598
0.843093	1.16314	0.0175605
-0.587227	-0.100076	-0.683583
-0.739182	0.281292	-0.317082
-0.0647563	-1.65597	0.193675
-0.814296	0.11371	-0.0481697
-1.77912	0.549675	-1.16995
0.461225	-0.282688	0.908815
-1.2775	2.7975	-0.248405
-0.0992269	0.945553	-0.0969207
1.75347	-0.599128	0.308597
0.682479	0.602812	1.20475
0.510829	-1.00595	0.221088
1.52726	1.25588	-0.0293709
0.138078	-0.446418	-0.0225922
1.58767	-0.941354	-0.0657659
0.262227	-0.0160257	-2.84351
1.88602	1.23866	1.9421
-1.41654	0.171555	-0.500986
0.26634	-1.1881	-1.02435
-0.825664	1.4021	1.2865
-0.55245	0.0109825	0.265874
0.513741	-1.1813	0.160669
-0.325728	-1.34691	0.64387
-0.417678	-1.6974	0.70178
-0.816086	-0.452963	0.498319
2.58846	1.46748	0.827084
0.289442	0.00267217	-1.3546
-0.321526	0.535609	0.184004
1.0411	-0.490411	0.532637
-2.83786	1.46325	1.93903
-0.128762	-0.156272	-0.940866
1.45616	-1.0001	-0.53295
-0.928926	-0.231608	0.38256
0.103612	0.900016	-1.66531
-1.55211	1.2186	0.390586
-1.6551	1.80955	-1.68481
-0.869251	-0.792114	-1.01625
0.245199	-0.22096	0.451032
-2.36782	0.848364	0.633198
1.99891	-1.56587	0.541261
-0.0679401	-1.60369	-0.587822
0.260248	0.394387	0.111047
1.36035	-0.504132	1.94549
-0.301293	0.494594	0.572601
-1.17501	1.39099	0.565621
0.896805	1.04231	1.38155
0.132174	-0.17524	-0.459233
0.317714	0.526208	-1.88615
-0.166633	0.709607	0.123259
-0.798585	-0.255111	0.150391
-1.4647	0.633536	0.109545
0.200904	-0.331579	-0.00145285
-0.169762	0.310921	0.853153
0.599692	-0.347306	-0.333149
-0.937253	-0.153199	-1.27295
-0.0308484	0.147826	0.0776839
0.771048	0.139642	-0.294645
-2.3829	1.17477	-0.885695
3.06175	-1.5687	-1.11245
-0.620201	0.785084	0.143251
2.33437	-1.55714	-0.283701
0.590465	0.362306	0.577299
1.47061	0.279447	-1.86533
0.407417	-0.152474	-0.714657
0.529294	-1.15727	0.752349
0.939197	-0.160083	0.480395
0.793379	1.06648	-0.82363
1.43116	-0.374393	-0.82999
3.19561	-1.03321	-0.520681
1.18869	0.781337	-1.43266
3.44509	0.0666493	-1.41957
-0.065429	-0.357296	-0.776988
-0.941397	-0.780864	1.17296
-0.632271	-1.20949	-0.346692
0.904064	0.667427	0.399205
-0.535015	-0.237259	0.243687
-0.6419	-1.60277	1.45646
0.283695	3.03638	1.31725
-0.711165	-0.109084	-0.125112
-0.760455	1.33899	-0.180467
-0.174006	-2.51711	0.104477
1.1891	0.00421055	1.01352
-0.459027	0.0531431	0.691932
-1.6859	2.29542	-0.833198
-0.575682	-1.58179	0.483708
-0.264831	-0.248024	-0.0350342
0.886727	0.0887648	0.218364
-0.160275	-0.259553	-0.263616
-1.06859	-1.3143	0.0241524
-0.561875	-0.0556018	-1.68694
2.28338	1.49139	1.27675
-3.34363	-0.672676	0.403087
-0.693674	1.00545	-1.17727
0.195525	0.322952	0.112635
0.454169	0.477432	0.242153
0.903604	-1.86221	-0.114012
-1.39569	0.00817225	-1.42744
-0.0370953	-0.485749	0.176583
0.880924	0.534635	0.283053
0.223857	0.526855	0.368076
-0.621154	-0.299874	-0.0227698
-0.0685865	-0.321992	-0.870842
0.308113	-0.206073	-0.465832
-0.0327463	-0.0585505	-0.986682
-0.445579	-0.152809	0.153388
-0.506702	0.260702	-1.44801
0.00170421	0.88063	-0.872716
0.274875	1.31024	0.934299
0.0430244	2.0132	-0.824417
-0.452064	-1.05848	-0.493421
0.898713	1.28768	-0.453951
-0.159424	0.977689	1.50511
0.67195	1.02158	-0.102937
1.18376	-1.36394	-0.933508
0.0951793	-0.421421	0.513086
0.630525	0.660558	1.13174
0.613426	1.28391	1.11876
1.73797	0.100062	0.0247875
0.233292	-0.594389	-0.564921
-1.25976	-0.438381	0.627515
-1.77166	-0.435541	1.05764
-0.566487	-1.41219	0.701579
-0.938328	0.928713	-0.0878872
-0.101968	-0.149591	0.2935
-0.174714	-0.423164	0.0171606
1.20102	-0.138071	0.380899
0.151528	-0.290688	0.710478
0.25878	0.526039	-0.216327
-0.697969	-0.222138	0.586857
-0.362212	-1.78911	-0.721914
0.632917	-0.934125	-0.503786
-3.56252	0.240921	1.75928
-0.00452827	-1.32025	-0.963642
-0.395388	-0.454759	0.100451
-3.12409	-1.14129	-0.903505
-0.535261	0.52464	0.0204639
-1.54373	-1.71162	0.0620108
0.677938	-0.280523	1.41489
0.641748	0.479536	-0.771736
-2.35297	-1.35054	-1.2593
-0.601062	0.60136	-0.303054
0.473761	0.0685915	-1.22917
-0.388369	-0.294863	1.70437
-0.271499	-0.28658	-2.03663
0.511902	-0.670359	0.541937
0.567685	1.03097	0.842612
-0.593574	0.15832	0.594556
0.693107	-1.10389	1.03593
0.615755	-0.84948	0.755654
0.000863712	0.501536	0.00452692
0.466181	-0.0453862	0.0371747
-0.273484	-0.00659875	-1.41725
-0.670672	1.02667	-0.475801
-2.2366	-0.546596	2.18021
-0.0397069	0.503405	0.754093
0.105905	-1.67589	1.07536
-0.106231	0.496665	0.293575
-0.438189	-0.0338987	-0.0670136
-0.241916	0.152973	0.305158
-1.17132	-0.793421	1.39686
0.173217	-0.21599	-1.06306
0.367605	-0.491825	-0.254452
0.115165	-0.436669	-1.21571
-0.195019	-0.594167	0.598551
-0.744147	0.934791	-0.290638
-0.132496	1.07774	-0.0406516
-1.67456	-0.00112065	0.0331477
-0.640224	-0.384791	-0.693055
-0.539939	-0.781455	-0.922465
0.228822	-0.141332	-0.491524
0.834581	1.24507	2.71921
-0.778936	1.38911	-0.407232
-0.131041	-0.01807	0.982279
-0.475334	0.174094	0.255908
-0.999289	0.31979	1.00709
-1.19155	-0.219195	-1.0492
-0.272864	0.313436	1.20134
-1.63628	1.14883	0.406818
-0.939872	-2.45644	0.586362
2.18564	0.287502	1.13886
0.0948982	0.164416	-0.685916
1.49646	-0.909146	-0.574611
0.314185	0.0797148	0.0102512
-0.528629	0.330878	1.00397
-0.752433	1.6768	-0.089873
1.99748	-0.0110927	-0.0412512
-0.709895	-0.21167	-0.129821
1.83892	0.193416	-1.44068
-1.56461	-1.26898	1.52742
-0.314106	-0.464293	-0.819111
-0.171252	2.08181	0.910005
-0.960736	0.206802	0.524065
-0.277271	-0.927795	0.42066
-1.32789	0.431183	0.522463
0.308343	0.215045	-1.99971
-0.63664	-0.27364	0.385623
0.403515	0.0929816	0.00169476
-0.770879	-0.223767	-0.690334
0.804435	-0.728774	0.475542
-0.447641	-0.910617	0.57735
-0.138015	-1.63593	1.0675
-0.0634939	0.171957	-0.250079
0.455993	-0.0960383	0.00970596
1.36393	1.07122	-1.86631
-1.03684	0.00447374	-1.25971
1.11315	0.954386	-0.249
-1.52662	-0.409477	-0.575539
-0.576498	-0.340769	1.88899
-1.9367	0.419181	-0.646759
0.719647	-0.460465	-0.225609
0.00734599	0.554348	0.120876
-0.794631	-0.652449	0.0725568
0.0663601	0.0282185	1.12548
1.25986	1.79831	-2.37235
-0.833051	-0.201281	-0.473394
-0.197433	-0.72704	1.06298
0.146683	-1.30083	-0.623241
0.794568	0.403487	-0.644077
0.200492	0.113447	0.18173
2.3366	-0.856719	0.135313
1.33761	0.970102	0.629731
-0.304505	-0.0850553	0.444978
0.154689	0.543875	-0.385655
-0.315107	0.0909367	-0.909741
1.75709	-0.0161448	0.149712
-0.148991	0.275294	0.0077602
-0.302492	-0.0205343	-2.05434
1.31305	-1.22333	-1.20873
0.237529	1.51428	0.465648
-2.36638	1.11475	2.79832
-0.00798024	1.21725	0.866041
0.916612	-0.342387	1.19689
0.270609	-0.269696	0.129806
-1.73461	-1.01882	-0.159256
0.347721	-0.236835	-1.35136
0.39687	-0.627637	-1.26261
0.490233	0.4337	0.00573112
0.2423	-0.576384	-0.115303
0.19906	0.576312	1.00041
0.533439	1.09373	0.129726
-1.15077	-1.29769	0.794832
0.566485	0.0335436	2.77147
1.3575	0.167652	-0.95199
-0.987412	0.978883	-0.0974337
-0.0583145	-0.0386986	0.0907689
-1.60457	-0.58066	1.58234
0.298997	2.56531	-0.56934
0.715301	-0.115726	0.34828
-0.506573	0.535162	3.3436
1.05824	-0.148152	0.685576
0.308512	-0.68076	-2.48294
-1.56276	-0.0785092	1.71791
0.973443	0.224928	-1.54381
-0.136538	2.01768	0.464165
0.416928	1.0141	0.986674
0.522666	1.83444	1.13617
-0.965564	0.313895	-0.652872
0.575303	2.17852	-1.16685
-1.08621	-0.41223	-0.790637
-1.33606	-0.935892	-1.90775
-0.137429	0.596294	-0.187211
-0.168898	-1.58833	0.921103
1.10511	-0.592018	-0.741865
-0.381366	-0.755284	-0.0919652
-1.40105	-0.252426	0.0651296
0.3044	0.636785	-0.842226
-0.384705	0.180872	0.312261
-0.587436	-0.757174	-1.17261
0.765178	0.166024	2.06262
-0.440146	-0.0598002	0.563556
-1.2937	1.47964	2.47885
-0.163999	-1.09627	-2.08478
-1.26104	0.0763007	-2.1824
-0.0155799	-1.79346	-0.790421
0.491997	-0.22429	-0.166718
-0.159538	-0.558608	-0.22413
0.802816	-1.10774	-0.610707
-0.361177	-0.554046	-0.153507
1.12289	0.314314	0.243469
0.275504	0.194303	-0.211263
-0.107517	-2.71843	0.416867
0.265731	0.0463154	0.231322
0.523053	-0.520632	-0.330734
1.61277	2.1762	3.17688
1.1345	0.288707	-0.52411
-0.669602	-0.839525	-0.128163
-0.706793	1.216	-1.55077
1.27177	-0.390446	0.493211
-1.58741	2.24578	0.647213
0.599134	-0.63492	-0.0229447
-0.450947	0.259932	0.195999
0.465748	-1.35661	1.16064
-0.701686	0.775645	-0.643511
0.236672	-0.401791	1.13719
-0.887938	-2.14183	0.159656
2.19923	2.1987	-3.15611
-0.565409	-0.72513	-0.846415
2.8253	0.44813	1.18969
0.770646	0.785619	0.288448
-1.02993	1.05596	-0.953005
0.837506	0.696504	0.50869
-0.971305	-1.38415	1.22139
-2.17283	0.273307	0.31959
-1.37161	-0.977579	0.182138
0.107266	-0.331478	-0.382717
0.828287	-1.15818	0.135348
-1.71225	0.822566	0.308097
0.585111	-0.13626	0.754902
0.467818	-0.715105	0.0206619
0.0513309	-0.0359476	-0.115953
1.52568	-0.665908	2.49092
-0.590117	0.206494	0.545804
0.764226	0.350978	-0.630514
-0.335036	0.461177	-0.0942982
0.417923	-0.331333	0.616068
-0.530385	-0.0843187	-0.146028
-1.36479	1.34196	-1.37429
-0.157857	-0.598405	-0.312464
-1.47925	0.445174	-0.76643
-1.22101	-0.0815012	-0.605082
0.971588	-0.69852	-0.355346
0.103112	0.491516	0.631422
1.09883	-4.50291	4.06918
0.719858	-0.71695	0.103493
-0.838556	0.349917	0.272249
-1.18984	0.517772	0.282149
-0.834838	1.44748	1.48462
0.523872	-0.451402	0.849138
0.798029	0.610994	-1.70495
-1.8746	1.22397	0.89344
2.9622	0.533009	-3.3314
-0.241946	-0.358473	-0.0668718
-1.04906	-1.14165	1.07511
-0.118111	0.610646	0.408615
-0.730588	-0.0430639	-0.569889
-0.177013	0.736467	-0.378964
0.770154	-0.00719924	0.00553133
-1.62427	-0.402018	0.231312
-0.601367	0.567413	0.0429023
0.9465	-0.608943	1.09693
-1.1428	0.109608	1.15454
1.37357	1.74296	0.00837393
-0.0492182	-1.05697	-0.672125
-0.24611	0.525918	0.979743
-0.344425	-0.576389	-0.471081
-1.79144	-1.19155	1.5378
-0.12554	-0.491338	-1.18915
-1.51899	-0.367645	-0.407628
-0.418469	0.981691	0.21796
-0.127493	-0.903457	1.68814
0.46651	-0.619889	0.337686
0.636028	0.163837	0.817621
0.652366	-0.21981	0.57574
-0.245488	-1.50499	-0.393358
0.0556061	0.0145334	0.243156
0.0599578	-0.0308053	-0.478535
-0.667351	0.0876265	0.99721
-0.040414	-1.77382	-1.17593
0.0793136	-0.630082	-0.0145646
1.41643	-0.523816	-0.300729
-0.540065	-0.68295	-0.0442798
-0.103576	0.559932	0.166708
-0.693316	-0.275418	0.99603
-0.386147	0.127065	-0.000254295
-0.78193	0.499603	-0.889327
-0.128123	-0.162815	-0.314401
-0.243049	0.51438	-0.516961
0.864109	0.268097	-0.135873
0.752888	-0.549589	-0.555348
-0.831999	0.315314	0.40926
2.20408	-0.390275	0.127844
-0.339159	0.223915	0.296113
0.23016	-0.406299	0.577916
2.44029	-1.27311	0.816151
-0.587119	-0.36754	1.30083
-0.733315	-0.458571	-0.589291
1.14104	0.49668	-0.454468
-0.766624	-0.944158	0.831772
1.11011	-0.801242	-0.834068
0.21558	-0.294781	0.585322
1.51726	-0.370784	1.12812
0.412095	1.09855	-1.56081
-1.11667	0.81594	0.815203
-0.799374	-0.194981	-0.154422
-0.489652	-0.0438549	0.396755
0.927602	-0.569435	-0.500511
-1.89673	-1.78665	-0.113334
-0.72829	1.33118	0.0604107
-0.772954	0.672307	-0.448255
-0.0428138	0.348746	-0.333906
0.740957	-1.29052	0.0124687
-0.578174	0.447602	-1.79838
-0.176472	0.837407	-0.72382
-0.414382	-0.435167	-1.3145
0.428008	0.553996	-0.0983946
-0.712244	-0.925418	1.91766
-0.807445	-0.423245	-0.130537
-0.582395	1.63086	-0.908264
0.681265	0.329376	0.0467575
-1.43511	0.267481	1.52562
-0.893409	-0.33438	0.724864
-1.18118	1.01645	-1.42857
0.109728	-0.464321	0.773664
-1.7075	-0.156926	-1.29276
1.02059	0.082196	-0.34555
-0.95682	0.0993691	0.737589
-1.75484	0.686907	0.569372
-0.0334851	0.902462	0.0350227
2.54128	0.450313	0.389359
-0.739381	0.726122	-0.808596
0.406069	-0.0869586	0.343162
-1.36578	-1.68473	0.298705
0.101489	0.102463	1.41892
-0.267666	-4.03553	1.06382
0.0286847	1.17522	0.788877
-0.525951	-0.287124	-0.309699
0.329925	-1.08923	0.665985
5.1553	-0.846333	0.0176741
-1.13604	-1.2591	-0.310773
-0.954726	-0.928335	-0.846793
-0.0292187	1.43516	-0.60872
-0.832214	0.0146524	-0.605414
1.44144	1.62693	-0.00212758
-0.629856	0.0125669	-0.206631
0.76251	1.16533	0.278019
0.0896367	0.200356	0.428591
0.423344	0.736514	-0.557479
-0.898919	-0.547639	-0.000553457
-0.275923	-0.198611	-0.846057
0.113799	-2.81818	1.2912
-0.0759152	4.09403	-0.157474
-0.499125	-0.166184	0.947912
0.617064	-1.35877	-0.220613
2.20007	-0.981312	1.82091
-2.40218	-0.96801	1.5446
-0.750442	-1.62711	0.768157
-0.525951	-1.12323	-0.502079
0.0785961	0.883329	0.600873
0.715625	-0.0132691	1.74924
-0.120326	-0.133726	-0.523032
-0.347844	0.852524	-0.393602
-0.57066	0.346797	-0.054074
-2.10318	0.891296	-1.23148
-0.0445205	0.425881	0.177404
0.998789	-1.89543	0.0506522
-1.08621	1.3512	0.585582
0.401157	0.43164	-0.259594
-1.24552	-1.09522	1.72411
-0.846673	0.316927	-2.22713
-0.728687	1.36686	1.01211
0.255999	0.0122407	0.325824
0.0503386	0.248756	0.525064
0.393284	0.916292	-0.49198
0.427048	-0.0570368	-0.412244
0.26767	0.0629333	-1.91484
0.506484	-2.33622	1.10604
-0.94356	-0.164207	-0.335351
-1.56697	-2.18291	-1.18465
-1.59077	-0.652939	1.38189
-0.487523	0.329737	-0.235533
0.852129	-0.352909	1.49517
-1.41114	-0.666283	0.784464
0.754775	0.355019	-0.446688
-0.553352	-0.528368	0.221816
-0.566152	-0.519197	-0.0191915
-0.370163	0.261916	1.03166
-0.81009	0.147992	0.476969
0.150888	0.0546059	0.155642
0.444884	1.1551	-0.409774
-1.05128	-1.1715	-3.12046
0.877889	1.48238	0.446314
0.748936	0.131111	-0.751401
-1.4775	-0.310982	-1.54768
-1.5864	0.825819	2.45374
0.978844	0.701098	1.94817
-1.60915	0.248582	0.685431
0.952707	1.63835	-1.91818
-0.900792	0.274246	0.813719
0.905023	1.90647	-0.969835
-0.445555	1.09791	1.3161
0.514579	0.0350896	0.763112
-0.905151	-0.428654	1.55853
1.11767	-0.359342	2.62242
-0.282452	-0.641045	0.110023
-0.643828	0.271584	0.586384
0.819217	0.10064	-1.23066
0.907395	0.0334451	-0.0749263
-1.47917	1.00148	0.488564
2.56744	1.50703	0.952431
0.104713	0.377769	-0.240512
0.89434	0.0361978	0.549865
1.42445	-0.146859	2.98405
0.0143289	0.0590312	0.145792
-0.669256	-0.177121	1.86533
0.979143	0.118044	-0.103837
0.868859	0.161774	-0.238158
0.249771	0.285549	0.152577
-0.548616	1.05971	-0.3315
-0.485424	0.706174	1.32683
1.15718	-0.56226	-0.322816
-0.650997	0.466044	-0.45646
1.77151	1.15575	-0.995241
-0.357754	-1.49141	0.8112
0.873227	1.15738	-0.71619
3.18475	1.22866	0.682419
1.2186	2.00369	-0.741998
0.638314	-1.29339	-0.665032
0.452902	-0.116506	0.294447
-1.64054	-0.894998	-0.334748
2.24381	0.964275	-0.00861037
-1.1305	1.32226	-1.98763
-1.56365	-1.01011	-1.60607
-0.114489	0.810388	-1.03115
0.168759	-0.806438	-0.228937
0.592085	0.0546544	-0.549454
0.165338	0.825694	0.504644
-0.0245997	0.707819	1.75842
3.17328	-2.19511	2.46389
0.795295	0.272951	-0.379583
0.198566	-0.588898	-0.116526
-0.938233	1.19928	2.26062
0.0276871	0.0159206	0.077553
0.035045	0.546536	-0.116233
0.287791	-0.302552	0.286145
0.801448	0.134747	0.418192
0.90857	0.502502	0.368089
-0.222844	0.612006	-0.1894
1.42846	0.69008	0.256576
2.90658	0.158862	0.228989
0.160173	-0.614679	-0.753288
0.193063	1.10261	-2.27039
0.359464	1.05753	-1.64637
3.07998	-0.586812	-2.00162
-0.0546411	1.3198	0.486656
-0.820786	-0.127769	1.11437
-0.163905	0.151321	-0.164737
-0.653538	0.170258	-0.0804405
0.991515	1.18329	0.298114
-1.12504	0.710279	-0.666452
0.663186	-1.59456	-1.1945
-0.773992	-0.833388	0.141459
0.483272	-1.12181	-0.614832
1.19422	-0.8863	-2.41607
-0.388821	0.178802	-1.19226
-2.34702	-1.15741	0.967769
-0.293413	-0.199876	-0.410189
-0.748025	2.6945	-2.08568
0.187068	-0.424989	-0.428956
-0.0212102	-0.782383	1.01147
-0.108616	-0.0370213	1.22928
-1.59716	-1.28579	-0.587537
-0.49368	-1.17954	0.401019
-0.868165	-0.693925	-1.33019
-0.165988	0.25531	0.588695
0.234215	0.54133	-0.72461
-0.169393	-2.29186	-2.03961
-0.849149	0.0524595	-0.751386
1.29168	-0.939993	-0.411055
0.164354	0.503914	2.23386
2.76932	-0.620079	1.23191
-1.15775	1.50239	0.347154
-1.20286	1.11794	-1.28726
-1.17897	-0.348865	0.46283
1.61738	-1.40691	0.88759
0.986526	0.972762	0.0720926
-0.887491	0.00812384	-0.297358
-0.154902	-0.572906	2.43303
-0.0595115	-1.85443	0.290307
0.554947	-0.891543	1.40197
0.632273	2.42779	1.37911
-1.75824	1.5866	0.158532
-0.507323	0.657593	0.275541
2.51062	0.95046	-1.12026
0.491404	-0.62737	0.892323
-0.595053	0.232963	-1.32575
-0.0298598	0.689718	-0.1878
0.199818	-0.45603	0.183479
-0.634115	0.118373	-0.327837
-1.17732	0.248098	0.277027
-0.0134544	0.586745	-0.481228
0.724432	-0.930864	0.843965
-0.902321	-0.817079	0.351125
-0.251261	-0.720234	-0.0486499
-0.183849	-0.98068	0.535387
-0.483445	-0.567412	0.468719
0.238715	-1.237	-0.0468062
-0.706292	0.218807	-0.722407
0.586569	0.00961844	0.713776
-0.409836	0.101435	-0.502438
1.03503	-1.57908	1.81373
0.359369	-0.99707	-0.203715
0.255278	0.650039	-1.31707
-0.4187	0.904749	0.0573347
-0.0156659	0.678422	0.972452
0.0449346	-0.320432	-1.10543
0.087337	0.147176	0.20137
-0.307408	-0.485922	0.140143
1.69341	0.676186	0.55376
0.114008	-0.565133	-0.775136
-0.0649342	-0.397909	-0.127574
1.56009	0.897113	-0.580383
0.117209	-0.398901	1.95147
0.0505586	0.0908801	-1.2531
0.630901	-0.592807	0.443598
-0.0346693	-0.445926	-1.11741
0.0285372	0.157446	-0.508541
-0.746443	-1.76608	0.691967
-0.747843	-1.04557	-1.79205
0.678521	2.07481	0.301454
-0.980611	0.232769	-0.999565
-0.181042	0.111416	0.18816
0.121162	-0.426591	-0.435496
0.603063	-0.150538	-0.659996
0.301631	0.353415	-0.190563
0.255267	-1.48358	-0.667022
-0.262201	-0.372762	0.0539941
0.0386795	0.260536	1.47193
-0.0972853	0.229192	-0.7986
-0.630605	0.431253	-1.30438
-1.01492	0.592282	0.394058
-0.621183	-0.546254	-0.568266
-0.464004	1.22909	-0.12872
0.0958023	0.400257	-0.133927
1.28516	-0.17376	-1.48843
-0.0562072	0.236537	0.0684943
0.148679	0.176053	-0.0995446
-0.0320806	0.261232	-0.179187
2.33016	1.14784	1.20997
-0.887975	0.268765	-4.26055
0.977656	-1.53763	0.441499
