0.031032	-0.337258	0.92738
0.669709	-0.926398	-1.06612
1.60513	0.645201	0.216799
0.549039	1.34278	0.537702
0.139339	0.983402	0.581296
-0.534186	0.341625	-0.610482
0.645087	-0.0693853	0.779393
-0.36916	-0.697373	0.974129
-0.513862	0.296901	1.38457
-0.0614467	0.156898	1.27108
0.530017	0.294669	0.801588
-1.45066	-0.212548	0.166927
-1.2931	0.0369058	-0.041336
-0.212256	0.866613	-0.656413
0.239404	-0.401847	0.133349
0.0106546	0.131325	0.868078
-0.278041	-0.522214	0.797308
1.00087	-1.09726	0.501037
1.0778	0.455122	0.544271
0.559756	0.415862	-0.439793
0.58599	0.442944	-0.649149
-0.684879	3.58277	2.50348
-0.105553	-0.0456659	0.503648
1.13909	0.865295	2.64716
-1.77528	0.353605	-1.46197
-0.638711	0.234365	-0.494619
-0.389474	-0.940049	-0.127044
-0.0128146	-0.35117	-0.349602
0.160549	0.695049	1.09601
1.3928	-1.68028	1.91391
0.444859	-0.445794	-0.298307
0.208219	1.4911	0.761379
-0.843942	-0.127918	1.57719
-2.19586	0.824267	-0.286677
0.377385	-0.369969	-0.860414
0.791375	0.659341	-3.40445
1.77244	-1.79175	2.5694
-0.596657	0.177837	1.15838
-0.0391947	-0.029236	1.2439
-0.579719	0.115972	-0.226155
-0.822646	0.166326	-0.167338
-0.865213	-0.478487	0.503908
0.137602	-0.11026	0.757248
1.90342	0.213873	-0.655644
-0.328312	-0.794154	-0.272313
0.842455	-0.364558	-0.717768
0.743662	-0.312021	0.673802
0.238504	0.730049	-1.40448
-0.474898	1.13421	0.826303
-1.45844	0.173855	0.603282
-0.567643	-0.15925	0.579629
0.445598	0.0628502	-0.51195
-0.0461327	0.297131	-1.19252
0.400331	-0.0127255	-0.0570918
-0.831004	-0.265651	-1.80076
-0.942438	-2.29781	0.43566
0.867899	-1.34799	-0.0565833
-0.756687	0.613928	0.837487
0.921911	0.259829	-0.325281
-0.508887	-0.0390659	-0.475441
-0.816037	-0.352722	2.23224
0.966687	-0.0957428	-0.338846
-0.912184	0.949975	0.156699
2.05823	-2.03842	0.640597
-0.402356	-0.24168	-1.07994
-1.2567	-1.14907	1.57302
2.0139	-0.655585	0.0833507
-1.33186	0.754081	-2.2447
1.43433	0.0937201	-0.945866
-0.71944	0.989636	-0.0863504
0.85795	0.645611	-0.552943
1.58402	0.0925	-0.886623
1.64208	1.38585	0.23892
-0.502096	0.229709	-2.64497
-0.811689	-0.627835	-0.884311
-0.356855	1.35677	-2.80753
-1.4895	-0.667252	1.5168
-3.39972	-1.07112	0.432224
0.681316	0.441228	1.2529
0.772152	-0.807721	-0.894015
-0.395587	-0.151481	-0.521169
0.321045	0.837427	-1.4094
-0.694902	-0.533776	-0.61862
0.684912	0.188282	0.329143
-0.352875	0.221708	1.28807
0.0270826	0.142372	0.336981
0.530863	2.20753	1.32401
-1.41574	-0.456165	-1.86731
0.411221	0.226163	-0.61541
0.0679413	-1.01557	1.4318
-1.11662	-0.11531	0.0889219
-0.974261	1.20606	-0.74467
0.127218	-0.627015	-0.754574
-0.0750935	0.829019	-0.092308
-0.677886	-1.03967	-0.997842
-0.971056	-1.57889	-0.847831
-1.24594	-1.53717	-0.763121
-0.24032	0.752887	-0.183257
0.162478	1.07772	-0.0986907
0.287974	0.0231396	-0.754522
-0.443745	-0.28234	0.230443
-0.760897	1.43772	1.19086
-0.18557	-0.609316	0.614346
0.881248	-0.277112	0.219692
0.227655	-1.48971	0.189195
-0.90069	-0.574839	0.574517
-0.0607476	-1.96308	2.21912
-0.818018	0.85881	-0.150358
1.31568	2.68838	-2.42511
1.62675	-1.45489	-1.1599
-0.890614	-1.08933	0.222174
-0.300099	0.480864	0.578518
0.203703	-0.316624	1.43106
0.271428	-0.371934	0.426828
-0.549137	1.50283	-0.463691
0.697124	0.593942	-0.460197
-0.272145	-0.419215	-0.202787
-0.421884	-1.37906	-0.564252
0.582888	0.108021	0.170447
0.206106	0.353608	-0.592961
0.526497	0.840361	1.19928
-2.78152	-2.04293	1.37649
-0.00616787	1.55141	0.592702
-0.65157	0.653541	2.18399
-2.08171	-0.374582	-0.830873
0.0138669	-0.779879	0.311917
0.521266	0.19274	0.853218
0.00707751	0.0958702	-1.44317
0.271891	-0.0422039	0.371112
-1.35194	1.44253	0.558813
-1.11159	-0.0717306	-0.413302
-0.168785	0.830263	0.86393
-0.535579	-0.781196	-2.50927
-2.05179	-1.23567	-0.483233
-0.711697	0.239287	0.104575
-0.303432	0.0327099	-1.09687
-0.862911	-0.887337	1.42049
-0.435787	0.179641	-0.320364
0.279046	0.27657	-0.943137
0.198006	-0.0387995	-0.850637
-0.21955	-1.50837	1.1584
0.923011	0.769856	-0.852044
-1.30245	0.788805	0.201277
-0.610035	1.26147	0.209416
-0.664465	0.24241	0.683384
2.19016	0.710305	0.355064
1.92604	-1.82132	-1.57368
0.0188025	0.408734	1.79618
-0.691862	-0.107444	0.690594
1.53162	0.130572	0.135535
1.00738	0.00251876	0.741933
0.159009	-0.129046	2.43267
0.51479	-0.016432	0.294411
0.0449584	0.023886	0.100836
-0.396443	0.723851	-0.974061
0.144857	0.138537	-0.424718
0.891291	-0.787374	-0.50446
0.797758	1.95564	1.88943
0.756614	0.0829351	0.597737
0.5816	-0.970368	0.167259
-0.15907	0.692959	0.747509
-0.920165	0.423854	0.233639
0.139804	2.58344	-1.7237
0.370075	-0.757083	0.183503
-0.0383037	-0.566536	0.112906
0.201052	0.655459	0.541135
1.80599	-1.93608	1.4586
0.012511	-0.549128	-0.680754
0.49569	-2.68191	0.284361
2.1032	0.748059	-2.22421
-0.859576	1.22741	0.135171
-0.653301	0.108263	0.170067
-1.36218	-0.0150839	-0.890828
-1.83616	-0.830061	0.013607
-1.36507	-1.72527	1.08782
-0.254128	-0.403452	-0.581727
-0.204219	0.231592	-0.00588591
0.888723	1.4681	0.139485
0.42611	-0.877145	-0.141256
-0.699159	0.981181	-0.00218979
-0.247091	0.767945	-0.375852
0.277717	-0.835414	0.829967
0.202095	-0.188185	-0.269806
0.32667	-0.496906	0.298039
0.509473	-0.879993	-0.244168
1.91041	-0.909815	-1.28391
0.00900244	-0.655568	2.07992
-0.287507	-0.250556	-0.400974
-1.7721	0.647549	0.143814
-0.796458	0.120807	0.0894043
0.337069	-0.500868	0.24698
0.176746	0.0957934	-0.249522
0.595941	-0.301184	-0.176743
-1.36385	-0.19383	-0.409184
-0.358368	-0.941941	0.059531
-0.240323	-0.0688102	-0.091728
-0.55514	0.270642	-0.66387
-0.0789053	-0.431248	0.29761
1.27592	-1.52986	0.754793
-0.454149	1.08048	1.45077
0.0235231	-0.288732	0.54971
1.22899	0.0933969	-1.2488
0.0481042	0.0414018	-0.0576866
-2.1131	2.32387	-1.33229
-1.21168	-0.87736	-2.02029
-0.0248793	-0.119827	-0.0712571
2.056	0.350229	0.293253
2.46431	-1.06479	0.178426
0.0926632	-0.69325	1.09357
1.0686	-0.726994	-1.19373
-0.346838	-0.97762	0.729698
-0.763734	-0.472279	-0.15104
1.29731	0.227825	0.692056
0.428451	-0.191603	0.172531
-0.024378	0.940844	1.39937
0.185709	-0.874666	-0.0349878
0.17778	-0.559415	-0.106868
1.33586	-0.159922	1.10809
-0.0722521	0.0438069	0.131295
-0.5301	-0.599332	-0.93177
0.351151	-0.703115	0.120273
-1.37748	0.941007	-0.14596
-0.35341	-1.42951	1.98768
-0.0656573	-0.11553	0.337553
-0.889505	-0.778814	0.202239
-0.950751	-1.15552	0.300784
-0.260539	-0.301798	0.92152
1.60529	0.198433	2.16586
0.412537	1.03686	-0.426918
0.339515	-0.196195	0.67431
0.56084	2.48818	-1.04945
-0.41219	0.269502	-0.676135
-0.241901	-0.394508	0.726056
2.18208	-2.01774	-2.05219
-1.6565	-1.03982	-1.33734
-3.38614	0.587776	-1.25298
1.202	0.331336	-0.131217
-0.344699	0.0218704	0.00258763
-0.435252	-0.210478	-0.116774
0.733971	-0.474117	0.886952
0.354739	0.317623	-0.406197
0.534775	-0.00838035	0.827557
1.82437	-1.0159	-1.12675
0.417871	-0.966856	0.95292
-0.215029	-0.00158801	-0.843149
0.204791	0.746902	-0.298444
0.457087	0.933926	0.474485
1.85913	1.06025	1.29338
-0.0194107	-1.26836	-0.231239
0.0029789	-0.721909	0.143723
0.00321023	-0.286031	-1.37867
0.208512	-0.988687	0.69941
0.0358121	0.0905741	0.510589
-2.31271	-2.04678	-1.4811
-0.396805	0.674491	-1.07479
2.32832	0.791993	1.51557
0.021056	0.965021	-0.00952047
2.15111	0.379832	0.162101
-1.85045	1.634	-1.37799
-1.46367	2.35283	0.996393
-1.63702	2.5433	-0.441003
0.952773	-0.472373	-0.668338
-1.12449	0.186882	0.43621
0.527068	2.16935	-2.91351
1.64297	-0.718172	0.392047
-0.282759	0.176169	-0.0852419
-0.390677	1.61435	0.488936
0.198285	0.0942383	-0.0759889
1.18703	-1.51965	-0.552117
-0.757282	2.01611	-0.149939
-0.985964	1.26664	1.00077
0.290618	-0.459793	-1.57995
-1.22687	0.398335	-0.29271
0.484314	2.44193	0.165604
-0.263611	1.13312	0.159365
0.122454	0.0708943	-0.271498
-0.454714	-0.0962837	-0.713626
-1.58354	0.448478	-1.15469
0.846011	1.12264	0.401442
0.185491	0.861004	0.350097
-0.252392	-0.205111	-0.629142
-0.269307	-0.286858	-0.935314
-0.275648	0.450613	1.38195
-0.0258626	0.512846	0.34403
-1.19928	-1.31503	-1.09772
0.0836243	1.28721	-1.41573
0.442486	0.467404	-0.136389
-1.10368	-0.575049	-1.18785
-1.1432	1.18003	0.419164
-0.28832	0.460994	-0.263505
-0.0546707	3.21142	-1.26908
0.704291	1.29952	-2.20509
-1.28385	-1.53674	0.65484
-0.705536	0.77176	0.846026
-0.0104675	-0.44034	0.30694
-0.227729	-1.69602	2.5426
-0.604129	-0.175458	-0.391854
0.0572982	0.275339	-2.76959
0.145865	-0.814306	-2.09081
0.739472	-0.186089	-0.656882
-0.216536	0.674215	2.08234
0.302496	-1.9844	-3.38023
-0.416932	-0.696232	0.0930881
0.361975	1.28045	-1.72987
0.809059	0.327272	-0.597266
-1.19434	-0.167093	-0.138875
-0.22419	-0.679648	-0.431791
-0.81552	0.224625	-0.159654
-1.11819	0.142127	0.653324
0.103834	0.327664	-0.0920557
0.211582	-0.413993	-0.350287
-1.54336	-0.745749	-0.185341
0.178072	0.436199	-0.166256
-0.124294	1.23217	1.26669
-0.189798	0.185496	-0.0651337
-0.283082	-1.20378	0.866604
1.06843	0.39975	-2.46472
-2.07342	0.902451	-2.07251
0.0887492	-0.63874	1.69035
-0.189411	0.742283	0.143176
0.0075054	-0.958681	0.250604
0.407382	-0.266116	-0.236747
0.469255	0.0310566	1.31205
0.130052	-0.520671	0.347301
0.556005	0.0536005	0.554784
-0.0415174	-0.992783	0.285174
0.0653408	0.0870427	0.713727
0.392842	1.54675	-0.659895
-0.0691087	-0.466343	0.76603
-1.13078	-0.25071	1.24623
-0.626781	4.24702	-1.63338
1.07741	0.915853	0.00845652
-1.37603	-0.494313	1.52841
-0.414642	-1.18891	0.217041
-0.431243	0.951396	-0.526833
0.245384	-0.356214	-0.386274
1.8415	0.855563	-0.869533
-2.1451	-0.916997	-0.587529
-0.281398	-0.699641	0.452683
1.00582	-0.282614	1.61894
0.803833	1.9801	0.241567
-0.281095	1.01386	-1.07346
-0.520133	-0.821231	-0.707119
1.0406	-0.546828	0.205991
0.0228371	0.629302	0.513969
0.034088	-0.668708	0.0202514
-1.61638	0.199755	-1.22243
-0.511187	-0.520679	0.443644
0.230733	0.63232	-0.609479
-0.234283	-1.34577	1.96381
-0.342214	1.03041	1.02
0.672634	-0.225736	-0.101862
-2.10578	0.89844	0.58088
-0.772077	-0.124695	-1.07612
-0.0140418	0.0279284	0.828011
-0.397746	-0.377564	-0.359179
0.77616	-0.080254	-0.512408
-0.725025	-1.52977	-1.03732
-0.364746	-0.6134	0.99979
-1.25639	-0.460719	0.77836
-1.2242	0.894485	-1.30048
0.43856	-0.782988	1.55971
1.01468	-1.52196	-0.6027
0.140082	0.598811	-0.956811
0.634232	-0.819385	-0.651558
-0.0898708	0.934866	-0.380339
-0.187155	-0.142048	0.239292
-0.0184663	0.562426	-0.132724
0.518152	-0.883804	1.1118
0.150547	0.0643715	-0.0222558
0.525963	-2.31886	-0.0852568
0.300158	0.131457	-1.69277
-1.63998	-0.249713	-0.464866
0.102625	0.129733	-2.10424
-0.797583	-0.202909	-0.0571045
0.861007	0.175992	1.14731
-0.729981	-1.05916	0.342632
0.301816	0.00909289	-0.242222
1.36032	0.678143	0.225746
0.0314928	3.61001	0.493948
0.117113	0.118051	0.267392
-0.16466	-0.542737	-0.143905
0.434564	-1.11563	-0.842013
0.539958	-0.732852	0.155554
-1.38377	-0.30217	0.0174408
2.0508	-0.309366	-0.471485
-0.246201	-0.507206	2.40666
-0.742158	-0.0368498	1.38442
-0.281564	-0.68016	-3.10811
0.566508	0.320941	-1.58373
0.00591651	0.132796	-0.316837
1.05916	-0.49249	0.817094
0.56941	-0.537522	1.13739
0.438524	0.933677	-0.373753
0.344529	2.39673	-0.64216
-0.0323275	1.91921	0.232259
-2.07324	0.531986	1.98048
-0.0352611	0.00327969	-0.0179375
0.511098	0.261729	0.0416696
-0.0839619	0.497364	1.24787
0.18832	-1.23286	0.355823
0.618	1.63869	-0.0929692
3.13665	-0.678819	-1.76902
0.294745	0.946426	0.689149
1.06163	-0.703164	1.67539
0.291478	0.502865	-0.643106
-2.58718	1.56252	0.671379
-0.309555	0.992826	1.4423
-1.08339	0.23984	-0.165772
-0.714252	-0.821085	-0.47865
1.64682	-2.38994	-0.880007
-0.441873	0.496841	0.0573155
0.196012	-0.832404	0.65124
0.234986	0.942452	1.20512
0.336036	0.345787	-1.76656
-0.277969	2.48271	2.77801
0.322404	-0.152309	-0.455003
0.391188	0.352832	0.313743
-0.89813	-2.15443	-1.79497
-0.822139	0.438019	-0.48901
-1.25727	-0.312938	-0.570114
0.660342	-2.33302	0.0409383
0.388197	-0.327145	1.39921
-0.645953	0.117931	1.5526
0.990225	0.406063	-1.32882
0.230208	-0.265635	0.132351
-0.343504	-0.674104	0.345384
0.170141	-0.83034	0.0394226
-0.386317	0.381273	0.386664
-0.86376	1.00844	-1.47768
1.37788	-0.842128	-2.49395
-1.35286	1.41912	-1.21954
1.7906	-1.45363	0.441006
0.813482	-0.206874	-0.289826
0.0325939	0.674972	0.417078
0.69275	0.653205	-0.113137
1.07283	1.2705	-0.616861
0.746398	4.40672	-1.92395
1.14307	-0.560042	-1.15401
0.174496	0.592705	0.231186
-0.115256	-0.502632	-0.786258
-0.260748	0.290749	-0.319777
-0.267044	-0.484838	-1.11112
-0.274497	0.511776	0.622173
-0.924746	0.0963558	-0.84883
0.00893154	2.12927	-0.247054
0.967049	-0.87943	0.874447
-1.541	0.310323	-0.961352
0.417861	-0.840364	0.155477
-0.186694	-0.0962498	-0.163076
-0.44756	0.723582	1.37529
-0.763975	0.169616	-0.748462
-0.776806	-0.708254	0.420631
-0.87302	-1.04849	-0.298888
-0.130022	0.746537	-0.495438
-0.749703	-1.33391	0.0634932
0.234433	-0.872637	0.271978
-1.83189	0.701217	0.377495
0.267708	-0.823062	3.07143
-0.565925	0.326139	-0.106373
-0.0861987	1.774	-0.256561
0.946552	-0.333418	0.200546
1.66499	-0.927921	-1.37363
0.523893	0.535675	-0.90486
0.764734	0.0506137	0.626891
-0.483801	-0.515907	-1.11905
0.389417	0.932058	2.01543
0.664782	-0.430388	0.661636
-1.41685	0.952998	1.49986
-1.25069	1.59155	0.535099
0.595269	0.511649	0.631699
-0.117927	-0.238022	0.397133
-2.01301	-0.0644838	0.0550441
-0.992547	0.325776	1.68911
-0.845717	0.389343	0.981361
1.46287	0.176034	0.857923
0.0219	-0.705603	0.988208
-1.00647	-0.107269	0.947637
0.66295	-0.264385	0.13233
1.17364	0.733558	-0.341426
-0.53976	0.345915	-0.190306
1.76728	0.859073	2.36245
-0.119929	-0.050535	0.117459
0.159292	-0.0382875	0.292684
-0.14714	-0.420236	-1.33189
0.689494	-1.72487	-1.21778
-0.660779	-0.20821	-0.799787
1.56816	0.938759	0.147924
0.156418	0.123295	0.344084
-0.849807	1.17381	-0.973121
-0.972755	-0.147205	-0.568396
0.33489	-0.190618	-0.270561
0.266458	0.889875	1.67902
1.61843	0.39571	0.216518
0.231907	-0.0913192	-0.202132
1.09504	-0.164025	0.72058
-0.266341	0.627381	1.18671
0.116681	-0.512177	-0.398633
0.11486	-0.213157	0.132292
1.21683	-1.80475	-1.81544
0.0807928	-1.04571	-1.16541
0.368247	-1.14995	0.210102
-0.813566	0.318215	0.227609
0.486996	-0.0976604	0.830977
-0.626115	0.780927	0.162919
-0.327457	1.35052	0.158401
0.359739	-0.222165	-0.811944
-1.25809	-0.397111	-0.17289
0.296978	-0.120437	0.93465
-0.718757	-0.903437	0.377555
0.174036	2.0088	0.741782
-0.02416	-0.677225	-0.517927
1.67457	-1.78037	-0.891589
0.218684	0.549242	-0.311424
-0.17071	0.323388	0.0190592
-0.173894	0.466116	-0.431769
1.03432	1.25087	0.820444
-0.576503	-1.03171	0.262557
-0.47538	0.171922	-0.551545
0.217469	-0.784408	-0.856178
-0.6872	-0.26493	0.0245176
-0.502533	-0.638426	0.1766
-1.53583	-1.21434	0.290126
-0.294214	-1.09964	0.366076
-1.43507	-0.165217	0.390579
1.09588	-0.584784	0.558144
-0.390787	0.746125	0.0968579
0.395736	-0.906728	-1.12441
-0.881402	-0.0884773	-0.252047
-0.506438	0.745509	0.233139
-0.501338	0.729192	-0.534347
0.377275	0.171877	1.18924
0.424468	-2.02125	-3.01587
0.410595	1.99433	1.68578
-0.18408	3.79688	-1.88184
0.343189	-1.18801	0.697607
1.14311	-0.186694	-0.313564
-0.0982965	-0.329808	0.411634
-1.23767	-2.08862	-1.03378
1.37165	-0.242637	0.924457
0.31464	-0.00795517	0.154367
1.72531	-2.68965	-0.157013
-0.04864	0.497816	-0.0675586
0.719026	-0.380137	-0.86127
0.17322	-0.064437	-0.416707
0.603033	-0.708756	0.499599
-0.951202	1.27911	1.22458
1.46134	-0.967341	1.28739
-1.04097	1.09883	-0.679312
0.627352	0.705864	-0.425876
-0.887102	1.81421	1.40432
-0.592047	0.24134	0.576643
0.313505	0.044757	0.281557
-3.74651	-0.82932	2.94136
0.98041	1.5198	-0.495382
2.21932	-3.12657	2.25931
-0.0134229	1.04129	-0.424735
-0.830669	-0.969855	-0.105475
1.04147	-0.485592	-0.496854
-2.54819	1.84957	-0.500345
0.772011	-0.019985	0.181387
-1.19689	0.661969	-0.1269
-1.63574	-0.397499	-0.0501459
0.947043	-0.199194	-0.540754
1.48269	-0.554788	0.496117
-0.466303	0.918341	-0.206963
0.390273	-0.842896	-0.122946
-0.135047	1.2178	1.28459
-0.00478661	-0.191108	-0.944038
-0.280936	-0.358654	-0.218109
0.0461261	0.037782	0.0423904
-0.491004	-0.480287	-0.750477
-1.70784	-0.0621288	-2.90801
0.00560707	1.47902	-0.886959
1.81493	-0.824517	0.221111
1.63024	0.774777	0.638903
0.637593	-0.637275	-0.612642
1.01035	1.57355	0.729482
-0.572092	-1.27639	-0.956023
0.692836	0.203141	0.498976
-2.75492	1.69879	1.5849
-0.350259	0.00387643	-0.911725
-0.292016	0.693739	-0.131531
-0.124746	0.504214	0.0801926
-0.222737	-0.198212	-0.170093
1.05043	-1.49895	0.112661
0.460009	0.139526	-0.433136
2.27177	1.19523	-0.0289759
0.00375344	1.4799	0.425736
0.412961	0.836931	0.456478
0.410244	-0.263856	-1.44145
1.50974	0.656727	-0.0804999
-2.26882	0.11975	2.70958
1.41323	1.16997	-2.29361
-0.475023	-0.401507	0.625689
-0.167998	-0.0440185	-0.268402
-0.0859005	-0.0141186	-0.274848
0.157054	1.80974	-0.237698
0.041961	0.426347	-0.849377
-2.15944	2.05297	0.00948753
-0.548439	0.516501	0.218274
0.227204	1.11338	0.288823
0.925369	2.188	-0.0868624
0.360926	1.53232	0.28719
-1.40281	0.057305	-1.86932
0.139171	0.532201	-0.343418
1.13079	0.0662998	-0.428027
0.0687759	0.0318022	-0.110219
-1.42678	-0.618081	-0.0301506
-0.906683	1.50278	1.81397
-0.144769	-0.65441	-0.259266
0.497735	-0.0414261	-1.10081
-0.302717	0.0320204	-0.6258
0.491867	-0.804279	0.4596
-0.964163	0.455043	1.57488
-0.235833	1.36503	0.545334
0.353344	-0.722089	-0.706618
-0.648395	0.384255	-0.085812
-1.28687	0.685953	0.436691
1.07996	0.13715	-0.526449
0.931733	1.71394	2.70992
0.291317	0.123595	-0.987359
0.751812	0.854072	0.978987
2.60711	-1.2373	0.86522
-0.58799	-1.81512	1.78237
0.668987	0.0859296	-0.486408
0.776684	-0.0521764	-0.0682282
-0.605572	-0.413657	1.21836
0.0129496	-1.45787	-0.0288347
0.31682	-0.574954	-1.2348
-0.116248	-0.0332708	0.147512
1.27832	-0.796246	1.00103
0.429391	-0.0163206	0.0312577
0.917894	-0.0354605	0.621417
0.501266	-0.0589041	-0.276285
-0.190952	-0.0702075	-0.181428
1.18231	-1.01208	0.394929
0.354675	-0.795608	-0.166414
-2.45089	1.12525	-1.05333
-2.04843	0.0319778	1.57227
-0.565285	0.255405	-0.992837
0.0171594	-0.592875	1.45189
-0.27592	-0.17755	0.38111
1.98351	3.55253	0.879453
-0.0872275	-0.350582	-0.795785
-1.77723	-0.19358	-0.0301008
-0.703678	-0.23202	-0.129371
-4.5573	-0.868003	0.717637
1.53257	0.973948	-1.0399
0.0469559	1.92126	-0.492781
0.662166	2.01214	-0.140677
-0.0545233	1.58995	0.35325
-0.233948	-0.415875	1.20976
-1.28722	0.341735	-1.6584
-0.193148	-0.0430884	0.849229
-0.424993	-0.496389	-0.701061
0.300393	0.0624337	0.754182
-1.23863	0.770061	0.0793673
-1.23105	-0.413819	-0.582982
0.288312	0.608956	0.669566
-0.631342	-0.65584	0.460104
1.16816	1.01431	1.37101
1.09182	0.650497	-0.494088
-0.337112	-0.873394	-1.11973
-0.229054	-0.415118	-0.934328
-1.09924	-0.432	1.22448
-0.566072	-1.24354	-0.179302
-3.0428	0.118996	-0.873305
-0.630103	-0.673873	0.511302
0.121759	-1.08388	-2.18832
-1.50271	-2.58994	1.40508
0.558357	-0.0984368	0.788534
2.25198	-0.321929	1.22491
0.0174262	0.993397	0.223306
-0.105347	0.102305	0.0626822
-1.43276	0.758967	-0.231919
1.08017	0.57262	0.54827
-0.647913	-1.00924	-0.224913
0.146345	1.0829	1.06576
-0.857685	-1.2819	-0.904037
-0.482512	0.257737	0.373212
-2.78074	1.7146	-2.29896
-0.103588	0.599193	1.20051
-0.25442	-0.0352979	-0.070677
-0.653527	-1.17118	-0.495559
0.336053	-0.416468	0.0557789
0.954764	0.380681	-0.433908
0.868386	-0.280115	-1.27008
-0.314383	0.200289	1.06672
0.880605	-1.28531	0.00161229
3.80802	1.9499	1.96721
0.775901	0.682889	-1.83463
0.238912	-1.45523	-0.735593
0.363373	-0.5964	-0.00819338
0.313937	0.685936	-0.142236
-0.633826	-1.25081	-1.57253
-0.611428	-0.753847	0.388089
-0.064173	-0.656199	-0.645949
3.05152	-0.617616	-0.224966
-1.87728	0.468027	1.23535
0.977089	-0.096305	0.0680214
0.976999	0.538619	0.539119
-1.35464	-3.87752	2.09777
0.972648	0.818276	-0.558313
-0.868471	-1.14303	0.239511
0.837619	-1.04624	-1.51661
-0.147668	-0.87303	1.8132
0.75555	-0.409955	-0.0894867
0.181455	-0.0881937	0.372119
-0.37017	0.536274	-0.0132095
-0.799877	-0.49801	-0.862926
0.234505	1.95321	1.05398
1.62424	1.05422	3.29857
-0.240476	1.9695	0.676557
-1.51266	0.600289	-1.18451
1.13884	1.8429	1.51658
2.37662	-0.0694022	-1.0915
-0.603449	0.362843	-0.731373
0.58922	-0.198914	0.370405
0.523542	0.481654	-1.22317
-0.205792	0.209018	-0.258966
2.29951	1.65182	1.13984
-0.167342	-0.0200538	0.436862
0.754697	-0.191609	0.65373
-0.529488	-0.354945	-0.441363
0.953003	0.276434	0.249919
1.17165	-1.09056	0.0692731
0.231586	0.491028	0.683257
0.815385	0.755877	0.973348
1.31893	-1.35501	0.0346389
-0.200218	0.0219346	0.619891
-1.08311	0.449711	-0.632546
0.577159	-0.0518106	-0.392534
-1.11992	1.24113	0.241129
1.10528	-0.201062	0.81554
0.0644301	-0.250563	-0.994529
0.0843949	0.383807	0.131693
-0.147728	-0.012953	1.34965
1.13457	-0.0787357	0.281329
0.272841	0.70989	0.195464
-1.31736	0.0924773	0.124942
0.255778	0.659161	0.647436
0.472029	-0.486946	-2.2934
-1.09464	0.425999	-0.492726
-0.656254	-0.315887	0.660522
1.83287	1.64826	1.45487
0.0531955	-0.0993154	-0.152473
-0.171556	-0.196136	0.879916
0.434492	1.10309	-0.223728
0.313465	-0.490501	0.185698
0.0123788	-0.309067	-1.48883
-0.732608	0.480923	0.449203
-1.43836	0.343919	-0.572279
1.63304	0.254415	-0.0188887
0.372061	-0.0456888	-1.05572
-0.00996024	0.764881	0.113108
1.90524	1.53553	1.10773
1.53008	-0.954593	-0.947518
0.715742	-2.10738	0.0180766
-0.352758	-0.277799	-1.34678
0.540555	0.38717	0.714845
-1.75118	-0.651975	3.06983
0.348416	1.47161	0.204865
0.541552	-0.964757	0.593048
0.0849378	-0.175816	0.557068
-0.407788	-1.12302	-0.49312
-0.720789	0.659767	-0.113739
-1.18896	1.67658	0.52526
0.538108	-0.703729	-0.838764
1.64167	0.633499	-0.97946
-0.377122	0.316931	-0.0193128
0.357354	0.267776	0.277088
0.0873022	0.294928	-0.191005
-0.525939	-1.36841	0.755306
-1.22109	-3.46832	1.86162
0.099274	0.738165	0.0745756
0.890502	-0.173517	0.913975
0.284452	1.3958	0.485039
-0.547951	2.53827	1.24396
0.364899	0.268745	0.336256
-1.1657	0.29558	-0.782748
-0.0537003	-2.18698	0.667672
-0.00201894	0.903388	-0.139742
0.462447	-1.42823	0.578612
-1.72051	-0.839104	0.263457
1.08102	-0.0244989	0.0182138
0.0640352	0.0502794	0.071249
0.776363	-0.70045	0.201588
-0.559412	-0.453335	0.537225
0.664312	-0.0489645	-0.411209
0.765266	0.976273	0.709991
0.752318	1.21682	-0.567174
0.119939	-0.960997	-0.485392
-0.899523	-0.470747	-1.03118
-1.41028	-0.511239	-1.76414
-0.451081	-0.198912	-0.86777
1.61958	-1.46261	-0.0525864
-0.202246	-0.975869	2.3864
0.0547876	0.466971	0.624356
1.12168	0.378704	0.087024
-0.0907174	-0.844896	0.349643
-0.209491	-2.73247	0.547045
-0.557858	0.506781	-0.813517
-1.51379	-1.11816	2.47875
-0.0168552	0.177609	-0.282262
-0.163196	0.221361	0.619735
0.323885	-0.439838	0.129994
0.205654	-0.938971	0.348971
0.447795	1.16677	0.384028
-0.607015	1.58756	0.891396
-0.103871	-0.825653	0.586012
-0.442141	0.385413	-1.24441
-1.13549	-0.00216771	-0.671044
0.155377	-1.8714	0.608602
0.227695	0.342145	0.57045
-1.23356	0.232139	1.24042
0.433164	0.390885	-0.153263
0.473327	0.374264	-1.35371
0.827538	-0.827155	-0.264771
-0.435913	-0.118813	0.449251
0.686066	-0.2364	0.695238
-0.898447	1.00694	0.574342
-0.648527	-1.50926	-1.27464
-0.756501	1.33018	-1.8979
-0.232099	0.103306	-1.18551
0.248699	-0.042389	-0.113091
-0.166961	0.313965	0.0394818
0.82482	0.179204	-0.705054
-2.02174	2.06543	0.433493
-0.492636	-0.386696	-0.784859
-0.603867	0.59656	-0.463313
-0.501308	1.16797	-0.497139
-0.992807	-1.09389	-0.0410165
-0.37088	-0.716523	1.23178
1.63775	-0.15144	-1.84649
-0.740234	0.210003	-0.231275
-0.577226	-0.229234	0.139781
0.154303	1.40363	0.920354
-0.0263383	-1.15933	1.85134
1.08562	-0.314641	-1.51706
0.964975	-0.539793	-0.917938
0.03028	1.12085	0.808414
0.35398	-0.400898	0.416856
-0.32078	0.110066	-1.8249
-1.15291	0.161615	-0.617756
-0.022178	-2.05482	0.721531
0.0538055	-0.0279152	-0.496505
-1.4721	-0.232158	-0.609947
0.171823	0.516589	-1.80948
-0.073436	0.0293294	0.43425
-0.125666	-0.256767	-0.332796
0.450235	-0.281678	-0.301001
-0.688089	0.515771	-1.86112
-0.104258	0.745854	0.71595
0.165667	-0.0220543	-0.0572254
-0.247083	-0.951981	-0.379922
-0.246452	0.0868816	0.60464
-0.809681	-0.0572732	-0.0648605
0.330026	0.385472	0.0842223
-0.283058	-0.00278319	-0.0806757
-0.0600342	-0.039967	-0.39579
-0.496432	1.2379	-0.543504
0.714647	0.783945	-0.0864229
0.787883	0.418787	-0.412245
-0.543253	-0.0834205	0.72809
0.790198	-0.0187325	-2.63638
-0.90936	0.499006	-0.300387
-0.560112	-0.749394	1.66277
0.758998	-1.07136	1.25547
0.401828	-0.16826	-0.368443
-0.731545	-0.091225	-1.67804
-2.11343	-0.192443	-0.149766
-0.02335	1.7615	-0.158797
-1.92943	1.44498	1.98787
0.0449173	0.0943805	0.813348
-0.258873	0.0795796	0.0295911
1.34719	-0.362715	1.25758
-0.520559	-0.882514	-1.69561
-0.48719	0.796307	0.527224
-0.200005	0.121801	-0.20449
-0.0530423	0.18102	-0.534322
-0.0267679	-0.621226	0.351598
0.21096	0.347335	-1.14648
1.14118	0.362016	-0.356821
1.84929	-0.00116826	-1.44379
-0.308691	-1.13013	-0.85346
0.441045	0.430552	0.113353
1.12036	0.592869	1.26699
-0.0238814	-1.85987	0.460383
1.10342	0.454091	0.311052
-1.28098	0.832389	0.703341
0.671084	0.123755	0.358887
0.504695	-1.40354	-0.632882
0.512074	1.26754	-0.34719
0.592251	1.12622	0.961271
1.11167	-3.30416	0.578006
-0.953317	-0.667863	-2.27327
0.0416842	0.10991	0.190757
-0.27825	0.650826	0.367187
-0.354362	0.834815	-0.248548
0.674532	-0.632913	0.633591
2.45031	1.13357	-2.63056
-0.443084	-0.648228	0.522242
-0.992671	0.614358	0.00461819
-0.646226	0.764209	1.97754
0.0726215	-0.0696028	1.02786
-0.403954	-0.00917008	-0.127271
-0.824691	1.03531	-0.0572315
0.0496743	-1.01239	0.128969
-0.596117	0.543115	-0.410688
0.383553	0.263333	0.0792942
1.45846	1.56581	1.08709
-0.107087	0.352442	-0.720858
1.35885	0.222771	-2.70633
0.442303	1.53702	1.72892
0.102223	0.11145	0.649221
-2.0371	-0.167317	-0.233835
-0.0478048	0.325761	-0.526562
-0.702166	0.0362274	0.768325
1.48541	0.187421	1.98239
-1.92447	-0.370474	-0.336216
0.583774	0.208436	0.0832119
-0.200757	-0.0319573	-0.241803
0.126229	0.465195	-0.200237
-2.6218	-2.30401	0.990345
-0.844171	0.111612	0.410989
-1.07842	0.421081	0.0678418
-0.189254	-0.837382	-0.200144
-2.95879	-1.75065	0.858338
-1.03307	-1.54033	-0.282956
1.03899	-0.932173	-0.168801
0.459196	0.365115	-1.0228
-0.489943	1.37468	0.64602
-0.436292	-0.703668	-1.97807
0.0196225	0.481881	0.593603
0.690851	-0.956363	-0.237358
0.60893	-0.331996	0.369344
-0.377693	-0.826156	1.73651
-0.189992	-0.0337328	-0.886643
0.560976	0.0556438	0.294563
-0.145669	0.440771	0.177364
-0.325887	-0.125624	-0.0946102
0.213965	0.482732	-0.97343
-0.794012	0.0954567	-1.09463
0.706417	-0.21002	-0.759453
-0.296263	-0.125173	0.402059
0.0489416	0.034786	0.0994201
0.227338	-0.609331	-0.928091
1.80261	-0.0900689	0.113863
-0.758591	-0.307736	-2.71027
-0.591219	-0.216603	0.075554
0.332483	-0.509548	-0.306914
0.411845	0.192721	7.07047e-05
-1.87994	-0.847087	-0.388816
1.44249	0.0122152	2.54309
-0.409766	-0.427199	0.0784761
-0.792255	-1.434	-0.897605
-0.0339895	0.26246	0.598874
-0.151522	-0.177859	-0.463683
1.1866	0.256528	0.967694
-1.48055	1.06664	-1.47223
-0.674906	-0.469544	-0.0668908
-1.88934	0.822519	0.498621
-0.574144	-0.185598	-0.787159
0.760668	0.469784	-1.82139
-1.34294	-1.32558	1.82973
-0.283282	0.370387	-0.29339
0.582408	-0.812187	-1.25449
-0.128288	0.286451	-1.3072
-0.304257	-0.74074	-0.0523957
-0.253979	-0.249945	-0.826155
-2.47025	-2.16304	-0.675467
-0.0403152	-0.993138	0.274702
1.55066	-0.0121938	0.413465
1.17893	2.41398	-0.7615
-0.0635242	2.41865	-0.0832463
-0.162023	-0.0991016	0.658493
0.165103	-0.076103	-0.173049
0.153492	0.34789	-0.119024
-0.178873	-1.61509	0.17415
-0.99605	-0.690162	0.332888
0.378755	0.039991	0.553585
-0.921283	0.566228	0.0599007
3.49149	0.258831	0.0625206
-0.518306	-0.102837	-0.940059
0.323472	0.102822	-1.32237
-2.36347	0.922533	-0.265479
-1.29687	-0.486744	-0.4173
0.20142	-0.0663451	0.171542
-0.437634	-3.24089	-2.80532
0.978935	0.326465	-1.01383
-0.0400762	-0.34088	0.0283211
-0.585532	0.831817	-1.22152
0.882897	-1.51431	-1.16329
-1.01264	-0.682152	-2.27549
-0.319266	1.97321	1.51436
-0.440637	-0.570397	0.321422
-0.704339	-0.674675	-0.827554
0.398193	-0.175719	-0.563576
0.00875567	0.209467	-0.74714
-1.17383	-0.380718	-0.17832
1.19884	1.68867	-1.81239
0.364788	1.44927	-2.0241
-0.152398	0.411037	1.34983
2.82849	-1.93946	4.05024
-2.10287	-2.80688	1.33005
-0.892724	0.661931	0.270084
0.536896	-0.00443344	2.07322
-0.228968	0.721625	0.0879011
-0.209983	-0.109422	-0.141268
0.413989	-1.53816	-0.179128
0.317408	2.15153	0.800913
-0.220105	-0.389544	1.06504
-4.037	1.90883	-0.909705
-0.883782	0.0825767	1.03644
0.660284	-0.34608	-0.024031
1.13077	-0.730934	1.62684
0.513744	-0.55422	-0.355108
0.38679	-0.332327	0.513809
-1.44471	-0.0221372	1.5346
-0.328876	0.261996	0.351252
-0.847525	1.63419	1.0355
0.322742	0.586561	-0.380755
-0.312936	0.342611	-0.00929541
-0.512478	0.524244	0.470095
1.31137	-1.18935	1.76319
-1.23373	2.04954	-1.60162
-1.15548	-3.30098	0.661076
-0.65145	-0.253653	0.359484
0.664522	1.29634	-0.776381
0.396638	-0.513997	0.106561
0.0485325	0.441603	0.22956
-0.448144	0.221096	-0.0356398
-0.533415	0.609348	0.947131
-0.0749147	0.164044	0.284609
-0.58294	-1.77406	-0.257229
-0.433823	-0.0321531	-0.279385
-0.417864	1.72525	-0.0834353
-0.294327	0.854792	-0.826993
0.746637	-0.346083	0.207806
-0.354237	1.79647	-0.187356
-0.554782	-0.914116	0.368882
0.127877	0.193159	0.526538
-1.11115	-0.98401	1.35211
-0.556355	-0.10354	0.751747
-0.0928091	1.34454	1.04486
0.00288883	-0.209096	1.11114
-1.9541	1.49123	0.647323
-0.321507	-0.193599	0.674799
-0.185253	-1.0697	0.598672
0.679535	-0.587951	-0.521373
1.10345	0.536337	2.18283
0.626438	-0.806818	-0.563818
-0.744351	1.024	-0.34157
0.616303	-0.308474	-0.549684
-0.762137	1.21301	-0.707659
0.515578	-0.0125105	-0.240538
-0.070923	0.170956	-0.447648
-0.52591	0.155096	0.61164
-0.519465	0.301089	-0.42818
0.0418856	-0.97116	0.0656354
-0.727434	-1.21754	1.20213
0.809888	-0.424123	0.492141
0.533606	0.158129	-1.06657
1.2523	0.78975	0.62435
-2.54203	0.2391	0.0250925
0.34308	0.436935	-1.08424
-1.20671	0.838477	-0.328656
-0.28571	0.139148	0.429934
-1.33756	1.02926	0.511429
0.162679	0.357161	-0.699513
1.01338	-0.632469	1.98597
0.291559	-0.0911992	0.211193
1.08101	-0.458486	-0.148338
0.12628	-1.13583	1.06272
0.602165	-0.301327	-1.14262
-0.191221	0.419328	-0.626355
2.20694	-0.781616	0.345312
-1.14235	-3.75133	-0.0873263
-0.269405	1.15091	0.340793
0.0544845	0.457944	0.309508
0.085766	-0.105638	-0.0948666
-1.20296	-0.0960787	0.240556
-0.606568	-0.0973361	-1.14103
-0.292077	-0.158543	-2.55013
0.587604	1.19991	-1.3751
1.44169	-0.2159	0.722459
0.768939	0.589629	0.567521
-1.11524	1.02908	-1.26775
0.585027	0.197527	-0.81809
-0.69359	0.315137	0.572992
0.213171	0.931488	0.978774
-0.154798	-0.36167	-0.145784
-0.3127	0.0232883	-0.0631969
-2.34165	1.13542	1.59283
1.07099	2.17094	-2.75976
0.174702	0.334855	0.373973
-0.414098	0.158281	0.290672
-0.00584479	-0.130814	-1.03435
-1.69926	0.215466	1.21459
0.599368	0.289466	1.40178
0.532931	2.27136	0.891023
0.772797	0.225646	-0.238566
0.708428	0.567893	-0.939032
-2.12116	-0.794956	1.45319
-0.914085	-0.300281	-0.764973
1.65426	-0.313523	0.213812
0.299067	0.147956	0.216501
-1.04068	0.105487	0.450057
0.315686	-0.287992	-0.107214
0.321124	0.500877	-0.933304
-1.81694	-1.186	1.78564
-0.795006	0.356844	1.65982
0.92831	-5.11662	-0.259126
-0.185814	0.867046	-0.13799
-0.846852	-0.128643	-0.636575
-0.409235	-1.11826	-0.315507
-0.119807	-0.0155644	-1.08131
-1.69667	-0.880319	-1.56023
0.121541	-0.0457024	-0.308927
1.14516	-0.173692	0.304184
0.292953	-0.0219335	-0.320381
-0.413252	0.245398	-0.540921
0.738468	-2.61082	2.66635
-0.626264	0.65883	1.09356
0.142176	-1.11278	-0.948643
0.257527	-1.29637	0.390935
0.604375	-0.29293	1.65471
-0.468241	0.41581	0.147012
0.494492	-0.184728	0.142334
0.588602	0.758617	0.134597
0.22086	-0.201939	-0.3283
-0.129485	-1.97488	1.60478
-0.168854	0.368429	0.334086
0.218882	-0.170919	0.141563
-0.0686375	0.571076	-0.773046
1.00044	1.06575	-0.41479
-0.0719248	-0.206955	-0.722174
1.35262	-0.551637	2.26534
-0.469401	-0.467194	1.24759
-0.999214	-1.02033	0.541492
0.0338042	0.50207	-0.494051
0.166679	-0.0801782	-0.506618
-1.57553	-0.152785	1.12481
-2.6157	-0.969741	-0.0813428
-0.10528	-2.36437	-0.110978
1.01675	-4.29482	-1.17091
0.0368267	-0.229992	0.331397
0.212967	0.0611961	-0.156475
-0.890601	0.853136	-2.30055
-0.75486	0.316481	0.752792
-0.357146	-1.21259	-0.536466
-0.36094	-0.682191	-0.197295
-0.740625	-0.100105	0.776722
-1.20833	0.826568	-0.13478
-1.13336	-0.184424	-0.12427
0.258781	-0.175084	-0.275581
-1.29827	-0.509062	0.826782
-0.0159572	-0.524474	0.106024
-0.740642	0.145324	0.229425
2.22118	1.40862	0.743311
1.60542	-0.0839752	0.573089
0.676463	-0.612319	1.07982
0.174253	0.658	1.47529
0.676367	-0.665045	-0.953832
-0.464309	-1.83062	-1.69976
-0.833085	0.129769	-1.78333
-0.683501	-0.903298	-1.71562
1.43668	0.193991	-0.166128
0.0285732	0.819646	0.454466
-0.322438	0.854092	-1.35179
0.551198	1.70553	1.88906
-0.0772245	-0.510354	-0.070089
-0.852128	0.450943	-0.861769
0.106939	-0.0589209	0.1539
-1.34968	-0.0426857	-0.504236
0.668862	0.131951	-1.49507
-0.0727273	-1.65128	-1.92516
-0.840225	1.14457	0.212701
0.0303511	-2.65695	0.189884
-0.175802	0.222594	-0.101528
-1.50387	1.74956	0.511166
-0.386929	-0.279031	0.348136
0.5999	1.37249	3.05132
0.604073	0.374645	-0.529184
2.36003	-0.427254	1.2877
-0.628991	-0.723636	0.316889
-0.165114	0.581421	0.54361
0.0088902	-0.320713	-0.0334743
-0.950852	0.661865	0.343289
1.88037	0.756438	1.91861
-0.998223	-1.5456	0.587623
-1.6214	-0.554159	-1.81727
1.68921	0.964455	-1.02614
0.484788	-0.225549	-0.259459
0.173527	1.02979	-1.3151
-0.17448	-0.0385862	0.152631
1.9689	1.08375	-0.92088
-0.0051377	-1.54928	1.10078
-0.278361	-0.138566	0.0384584
-1.60385	0.719206	0.00557125
-0.0438777	-0.109333	-0.180302
1.24539	-0.305605	1.25227
-0.159778	0.250023	-0.960762
-1.80492	-1.1115	1.1947
0.128141	-0.280573	-0.273911
0.389936	-0.015677	0.0349195
-0.424255	-0.801144	-0.0648021
0.530443	-0.619948	0.0775527
0.279959	0.25445	0.348352
0.135532	-0.197148	0.29792
-0.562224	0.345132	-0.422013
0.0264859	-0.302259	-1.59996
0.367055	-0.0361849	0.000437192
-0.487929	-0.00179649	-1.43507
0.457486	0.187631	-0.559239
-0.968498	-0.517559	0.559205
-0.0324477	-0.220577	0.920251
0.704399	-0.745814	-0.253411
0.97991	0.298339	3.12478
-0.0323884	1.48701	-0.0296235
0.36997	0.323485	0.690717
-0.274077	-0.368559	-0.265595
-0.376588	0.744043	0.114147
0.381041	0.509355	0.424909
-0.526492	1.28965	-0.526967
-0.56648	1.72347	-1.62436
-0.511847	1.23549	0.611824
0.0542397	-0.18747	0.222605
0.395109	-0.778346	0.0804769
0.602347	-1.19205	1.07231
-1.0552	-0.233401	-0.0644979
-1.44304	0.35235	-1.41465
-0.278591	-0.533582	0.384518
1.06482	-0.227819	-1.05623
-0.63303	-0.0998719	1.0818
0.48526	0.311738	-0.442852
-0.397264	0.164777	1.17841
1.94891	1.71923	-0.998188
0.0899682	0.158874	0.51026
-0.299281	0.000982053	0.626453
0.511585	-0.22421	-0.0316161
0.0957456	1.48143	-1.3306
-0.203891	-0.564205	-0.681449
-0.428236	0.0584369	0.460477
-0.20517	0.564855	0.0383066
-1.07683	0.616106	1.4731
0.00666272	0.111714	-0.460735
-0.975036	-0.801099	0.290513
0.149703	-2.3141	0.532749
0.60666	-0.148113	0.102015
2.05888	-0.611177	-1.11997
-1.32776	-3.18096	-0.146401
0.675295	1.63998	1.18421
-0.0554063	-0.163404	0.253511
3.70673	-0.766508	0.474629
0.45051	-0.200628	-0.620611
0.85123	-0.710978	-0.137757
-1.00683	0.55846	-0.792054
0.00851258	-3.13826	2.04805
-0.621406	0.671153	0.435979
-1.91602	0.0360981	1.30474
2.05202	1.53365	0.379543
0.597652	-2.04394	0.612228
1.27781	-0.0320317	-1.83748
-0.265477	0.364738	0.565633
0.13091	2.23401	-0.638113
-0.785497	-0.694671	-0.264822
-0.118004	-0.253738	-0.158804
-2.52809	-0.580114	1.10989
0.498317	-0.423138	-0.623087
0.0869906	0.483305	1.01991
-0.423338	0.534217	0.286032
-1.18559	-3.30233	-0.32608
0.20321	1.91423	0.146289
0.0980133	-0.387088	-0.0843471
0.165442	0.565874	-0.46536
0.756997	0.118208	-1.25216
0.290961	1.86515	0.357125
-0.647535	0.148414	-0.128634
-0.384125	-0.220007	0.278486
0.395041	2.40753	0.210768
-0.272509	-0.197272	0.168623
-2.15981	0.327434	-2.14895
-0.129221	-1.37891	0.129843
-0.609488	-0.172505	-0.419742
-0.15869	0.0230043	0.397799
1.13646	0.282391	0.342612
0.0121559	-0.441742	0.0593166
-0.51204	-1.45906	-0.044457
-0.0659632	-0.635539	-0.442755
0.210779	0.751953	-0.573006
-0.252643	-0.425462	-0.991229
-0.312203	0.315194	0.125531
1.04215	-0.432419	-3.53066
-3.17866	1.73263	1.91694
0.723924	0.866694	0.444615
0.384327	-0.509556	-1.46553
-0.528703	-1.06135	0.493889
0.191455	-1.0342	-1.89588
0.422127	1.47609	-0.15919
-0.573261	0.537622	1.8813
0.107638	-0.200677	-0.540808
0.150824	0.228969	0.150239
0.263646	-0.518434	-1.57611
-0.889374	0.114992	0.145187
1.11885	-0.773128	-1.44026
-0.410507	-0.415385	0.920497
-1.48432	-0.682927	0.264474
0.0253582	0.485489	0.176725
0.0358936	-0.63384	-0.141292
-0.40424	0.282281	-0.0861376
0.875072	-0.902449	-0.813744
1.92567	1.55559	0.636801
0.46847	2.40074	-2.49079
0.344882	0.446845	1.49018
0.245376	-0.976285	-0.0348892
1.03898	2.47695	2.78482
0.85609	1.81304	-0.566546
0.260702	0.210857	-0.246977
0.575521	-0.713757	-0.674148
-0.453884	-0.859494	0.366216
0.805526	-0.583386	-0.520034
0.781254	-1.04107	-0.282125
-1.23962	-0.380462	0.446145
-0.143119	-0.73088	-1.05446
-0.639358	0.425675	0.675694
-0.325976	0.983095	0.0637073
0.391155	-0.4602	-0.0122225
0.0735536	-0.1577	0.28033
0.939386	-0.410021	0.444515
0.385553	-1.22816	0.150845
-0.878954	-2.94005	1.11076
1.2719	-1.65699	-0.720074
-0.473207	0.517628	-0.319422
-0.0839767	-1.43006	-1.09307
-0.802229	-0.130526	1.33231
-0.273871	-1.05116	0.531627
-1.19969	-0.733433	-0.353681
-0.498788	-0.548755	0.712387
-0.0544143	0.079071	-0.0249025
-0.441012	-0.351386	0.951795
-0.536927	0.0164831	-0.39372
-1.3441	1.0572	-2.23958
-1.95275	0.382261	-0.229101
-0.871927	0.894448	-1.36627
0.265781	-0.0911413	-0.409796
-0.898902	0.520184	-0.674493
-0.409071	-1.26241	-0.354272
-0.398955	-0.235369	-0.274042
0.434604	-1.76506	0.302316
-0.197503	0.692948	-0.344809
0.393951	0.540905	-0.978768
-0.780557	-0.610017	1.41794
-0.215526	0.903739	-1.7518
-0.606242	-0.0562229	0.0795365
0.98445	0.413619	-0.340479
-0.406409	0.0145445	-1.31488
-0.371925	-0.670575	2.24697
1.2771	-2.00765	-1.57055
0.29989	-1.55931	-3.60495
0.41198	0.553651	1.73759
-0.546097	0.00470793	-0.57771
0.318167	-0.517398	1.08103
-0.351384	0.68697	-1.51018
-0.0951412	-1.26398	0.279562
1.43889	-0.029455	2.26596
2.00726	0.815627	-0.994188
1.11334	0.0476696	1.41958
-0.0041443	1.29296	0.180241
-0.605629	2.10614	0.171593
3.18563	-1.21709	2.91783
-2.03879	-3.08663	-0.849572
-1.63336	0.0167294	-0.958276
2.5645	2.541	1.16113
-0.063709	0.523826	-1.34078
-1.8243	-1.50069	-0.03921
-1.2395	1.00715	1.08256
-0.511397	0.681521	-0.445345
0.0333717	0.419745	-0.0598747
-0.444189	-1.41334	-0.471889
1.95641	0.550742	-1.2034
2.09225	-1.30407	0.170278
-0.82097	-1.00996	1.77701
1.7102	-0.521706	0.497088
-0.718939	-0.78469	-0.456726
0.340992	0.171052	-0.813473
0.982045	-0.730825	-0.113852
-0.0881751	0.0540207	-0.1436
0.403785	0.274891	2.05934
0.242997	-1.23686	-1.84469
-0.999838	-0.234076	0.326891
-0.157488	1.2644	0.283264
0.403136	-1.85289	-0.542436
0.412165	-1.14318	-0.425681
-0.658511	-2.54899	-0.799026
-0.0452435	0.137863	0.0702583
-1.29496	-0.567376	0.736616
1.07157	2.21164	3.48606
-0.982661	0.60924	1.51798
-0.897732	0.842358	-0.143279
0.793265	-0.890935	-0.479467
0.956561	2.35961	1.92103
0.208151	-0.521207	-0.516923
-0.221613	0.450333	0.799707
-1.42469	0.601685	1.6975
-0.531623	1.26094	1.3598
0.650334	0.0194619	0.266776
-1.58683	-0.580176	-0.132826
-2.08405	1.19602	0.449488
-0.316962	0.13329	-1.29707
0.14767	-0.339435	0.363156
1.62616	-0.59831	-0.931232
1.15574	0.667152	-2.16298
-0.502757	-0.388548	0.221793
0.510914	-1.45389	-1.2065
0.844476	-0.147252	-1.0205
-2.20196	0.251671	-2.02979
-1.38577	-1.52734	1.26447
0.150124	-3.89395	-0.298995
1.02323	1.21552	-0.416448
-0.889305	1.21732	1.49011
-0.350495	0.512848	-0.372359
1.15299	1.85002	0.851759
0.244564	1.35492	-0.0325131
0.140453	2.10376	0.070461
0.390327	0.341166	-0.313474
-0.906199	-0.27093	-0.469577
0.0202535	-1.1463	-0.503931
-0.440123	0.705858	-0.195338
0.533638	1.48528	0.170137
0.433359	0.0317624	0.315551
-1.45032	1.61555	0.703633
-0.100184	-0.111306	1.07015
1.30153	0.657874	-1.02502
1.11864	-0.36203	0.458417
-1.44817	1.25475	-0.387584
-0.0782948	-0.0871977	-0.934348
1.00955	-0.703302	-0.32892
1.30312	-0.211596	-0.255696
-0.914142	-0.198173	0.336481
-0.804854	-0.505136	0.62527
-1.13936	0.657	0.0224364
0.670872	-1.63919	-0.140386
0.981123	-0.936332	0.941904
0.491571	0.184452	0.709856
-0.844479	2.19017	-0.011431
-1.236	-0.73303	0.929627
0.42163	0.25708	-0.151806
1.21443	0.0382062	-1.56022
-2.42772	1.88754	0.418243
0.946419	-0.394851	0.428054
-1.62766	-0.16457	-1.30355
-0.372752	-0.261216	0.373651
-1.22994	-1.09211	1.75252
0.317586	1.60471	-0.545708
-0.438864	0.831434	0.724063
-2.25075	0.149202	2.53427
-0.157455	0.0210128	-1.2525
0.214421	0.0166035	0.956112
-0.67707	-0.565988	-0.568016
-0.633296	-0.205123	-0.11608
0.10451	-0.68811	0.745537
-0.00316498	0.0558257	0.115668
1.1213	-0.648136	-1.09422
0.222796	0.934325	-0.46993
0.52779	-0.0338865	0.981987
0.281708	0.153921	0.161916
1.71347	-1.0036	0.490077
1.38886	0.435364	1.72439
2.79078	-2.56477	-0.477515
0.182649	0.0382686	0.645262
-0.28939	-0.145091	0.133614
-0.0814848	-0.941451	-0.68821
0.772632	-0.740095	0.584459
0.94949	-0.00940525	-1.968
0.82425	-0.259662	1.95254
-0.00122598	-1.85485	-0.567654
0.800998	0.430511	0.232118
1.23251	0.461419	0.306151
1.68266	-2.10453	-0.606838
-0.445657	0.570105	-0.109784
0.10754	-0.601742	-1.16817
0.0281361	1.87628	0.696087
-0.221827	-0.488257	0.265704
0.049287	0.469865	0.772971
-0.901039	-0.989855	0.435626
-0.924624	-0.318608	-0.320358
0.0463054	-0.867812	0.331867
-1.52646	-0.627559	0.973311
-1.57331	-0.823538	-0.687328
0.335364	1.0511	-0.414636
-0.173989	-0.158736	1.30081
0.914059	-1.55356	0.730306
1.19346	-0.324168	-2.57622
1.08435	-0.590016	-0.265624
1.63836	-1.36375	1.58465
-0.446262	-0.183373	0.42126
-0.817721	0.525079	0.256245
-0.261803	-0.523852	-0.155797
-0.118244	0.663356	-0.959102
0.608538	-1.08287	0.861495
1.3456	-0.201054	-0.760692
-0.283086	-3.09108	-0.0523203
0.898172	-0.519568	0.0113368
-1.66045	-1.14015	-0.744786
0.624352	0.642984	0.728261
-0.572222	-0.296383	-0.789325
0.944561	-0.335373	0.374813
-0.199884	0.344127	1.09127
-0.311708	0.737599	2.8007
-1.25445	-0.435679	-0.644209
1.62121	-0.51451	1.52765
1.22961	0.623587	0.172958
-0.899127	0.420881	1.26421
-0.158599	0.514055	-0.244857
0.209519	0.625738	-0.103915
-0.218374	-0.547396	-0.524135
-0.519168	-0.6331	-0.212886
-0.182115	0.3645	0.306019
-0.604831	-0.824012	-0.322058
-1.25011	-0.377075	0.896565
-0.856118	-0.374557	0.182154
1.57537	0.727325	-1.95607
0.37434	1.48535	0.00395103
-0.191495	-0.0781874	-1.02401
1.10043	-0.22502	-2.28948
-0.380901	-1.73884	-0.288611
-1.05016	1.19327	-2.32981
0.641856	-0.00458666	-2.69759
-0.542487	0.787262	1.82045
0.0802153	0.576957	0.117652
0.213894	0.541064	-0.469811
0.469672	0.441378	-0.304765
0.0894286	0.575535	0.64783
-0.53577	-0.319138	1.73511
0.249087	0.137151	-0.0605954
0.0710161	-0.0155097	0.538573
-0.707786	0.0996	0.507267
-1.4801	-1.14335	2.2125
0.0558352	-0.283591	-0.193947
-1.89185	-0.0849616	-0.24197
-1.01889	-0.292003	-0.0749532
0.39148	-0.470696	-0.113019
-0.187437	1.03867	-0.999616
0.330511	0.209547	0.56085
0.642275	0.102555	0.226344
-0.315603	0.465975	-0.120524
0.274128	-0.593296	0.111023
-0.0157153	1.38974	-0.380396
0.0799102	0.0961974	-0.690629
0.990299	0.619945	-4.42504
-0.0726733	-1.88911	-1.48859
-1.01772	-3.60134	-3.04821
0.44607	0.257615	-2.11012
-0.485989	-0.115378	1.70695
0.235252	0.730389	-0.277264
0.379977	-0.381182	1.13381
0.182695	0.430945	0.0842326
-0.777704	1.06784	0.166677
0.99591	-0.203724	0.604086
-0.987006	1.35763	0.311812
0.536507	-0.386594	-0.764336
-0.572635	-1.38545	-0.0825724
-0.684444	1.56586	0.406121
-0.368147	0.211727	-0.705982
-0.0818649	-1.32469	0.0337329
-1.47655	-0.479433	2.00417
-0.344902	-0.103521	0.740569
0.591282	-0.027609	-1.78889
-0.84687	-0.125504	1.28451
0.0993415	0.444819	-0.45839
-0.499066	-0.72572	0.745712
0.971947	1.27625	1.44798
0.912881	-0.224338	0.525219
0.404523	-0.47978	0.853759
1.18528	-0.422925	-1.14932
-1.72895	0.285629	0.398673
1.08679	-0.0643539	-0.937135
0.578379	-0.759264	2.5054
-0.205689	0.35893	-0.558937
-0.115754	0.0380651	-0.0183498
0.957002	-1.14182	0.752454
-0.122151	1.38176	1.71666
0.181361	1.75371	1.18901
0.450856	-0.467435	0.134667
-0.689643	-0.441165	0.308794
-0.345678	-0.826999	0.237485
-1.76705	1.83679	0.307295
1.52633	0.0178802	-0.727756
0.183766	0.101897	-0.692577
0.278784	-0.00140915	-1.52537
-0.592829	-0.318634	-0.835981
0.192447	0.0594595	0.501024
3.49393	0.701469	1.42585
-0.231866	0.378242	-0.719103
-0.676692	-0.670097	0.158299
-1.15595	0.089274	0.00623805
1.15889	0.972324	-0.777657
0.618414	1.0288	0.273315
0.130279	1.02583	0.562857
0.0954744	1.00254	0.0826002
-1.08157	-0.200735	0.283222
1.25059	0.833594	1.06841
0.774334	0.363277	-1.28095
0.0899519	-1.17977	0.787484
1.0969	-0.740455	0.14101
-1.33995	0.387614	0.391592
-0.0608915	0.545316	0.789348
-0.178112	0.0454889	0.928649
1.11871	-0.0737352	0.846862
0.86074	0.648931	1.9671
-0.710985	0.0155299	0.693395
2.68204	0.429025	0.216952
-1.19391	0.369844	-2.12686
0.377	0.762506	-0.529092
0.227969	0.891765	0.685637
-1.67431	-1.53078	-0.207952
2.62491	-2.58876	4.82391
-0.589172	-0.671922	-0.375455
1.4082	-2.16687	-1.84996
-1.04061	-0.244893	-2.0004
-0.378065	0.0101134	0.516433
1.48045	0.647582	0.702236
-0.0516483	-0.47136	0.490609
-1.18378	-0.214572	-0.976803
-0.658247	-0.707426	-1.5519
0.0209596	-1.81699	1.70577
-0.0944349	-1.3827	-0.564233
0.376202	0.103805	-0.802483
-0.142494	-0.0138134	0.166025
-0.665732	-1.71733	2.15925
-0.651174	0.0587966	0.645887
0.277277	-1.65871	-0.678722
0.152714	-0.445293	-0.135747
-0.135237	-0.26092	0.0730459
-1.28161	-1.08081	-0.401539
-0.623925	0.0283242	-0.11627
2.68199	-0.319646	1.09582
0.158428	0.535077	-0.166911
-1.81193	0.322302	-0.692186
1.30054	1.11062	1.12006
0.159373	-0.344984	-0.275907
0.737823	-0.226966	-0.607277
-0.299502	-0.361544	-2.16401
0.757269	-1.02475	-0.285936
0.0677709	0.94771	2.15051
-0.802412	-0.583982	-0.782689
1.34737	-1.34466	-0.933037
0.535228	2.01772	1.07911
0.200469	-0.620004	0.318634
-0.542663	1.05959	0.9157
-1.06571	-1.89065	-0.436717
-0.085132	1.24174	0.0449081
1.18293	1.25397	-1.69699
0.287394	-0.239449	-0.504683
0.853574	-1.11797	0.567786
0.461089	0.133363	0.370501
-2.80359	-0.668688	-0.266923
0.767496	0.8235	-0.291973
-0.433117	0.487	-0.185856
0.635231	-0.0254972	-0.185482
0.810234	0.7036	-0.0964867
1.31264	-1.27808	0.321627
-1.42788	0.09381	0.0958637
0.211278	1.03887	-1.30926
-1.0838	0.76577	1.10332
0.294686	2.74668	2.30404
-0.701465	-0.438485	0.409644
-0.0694955	-0.291486	-0.413509
0.201291	-0.678411	0.596268
-0.369976	0.0898066	-0.922735
-0.355006	-0.0299878	0.528482
1.75741	2.24896	1.97435
-0.588039	0.715997	1.31274
-0.821926	-0.868122	-0.094108
1.4193	0.221727	2.1827
0.654509	0.752207	0.702647
0.778075	-0.0940715	0.39984
-0.893405	-0.0077939	0.192525
0.701155	0.467736	0.272875
0.120531	0.404789	0.483093
1.45536	0.341438	0.617697
1.24541	-0.179652	-1.66107
2.31349	3.71486	-4.425
-0.532191	0.538337	0.195254
-1.11246	0.894447	-0.0633534
1.20789	-1.12858	-0.29715
0.220247	0.666103	-0.866988
0.133019	1.44435	0.340371
-0.824489	-0.831858	-0.075204
1.18002	1.10314	-0.815639
-0.439415	-0.0123139	-0.855102
-0.531494	-0.456257	-0.314192
2.49591	-1.62846	-1.16202
0.234683	1.18905	-0.501985
-0.326894	-1.26455	-0.749713
-0.288128	0.568054	-3.46787
0.405134	-2.42075	-2.6896
0.0021124	-0.402378	0.757805
-1.22557	-2.70465	-0.625361
-1.71777	-1.30786	-1.30498
0.10766	-0.71906	1.17378
-0.0591795	-0.496152	0.72978
0.515645	-0.298664	-0.175103
-0.333482	0.0902203	0.753485
1.27916	0.274798	2.00611
-0.262896	0.382395	-1.15223
0.418303	0.061003	-2.69691
2.21023	-0.370861	0.364261
-1.07489	0.245739	-1.06434
0.0452217	0.0095518	-0.803599
-0.179016	0.323264	-0.0526887
-1.15567	0.340102	0.00370008
0.611157	-0.528488	0.525741
0.475674	1.16366	-0.0645822
0.103127	1.20749	2.05028
-0.975317	0.686583	-0.174975
-1.6725	0.114969	-0.895282
-0.964486	-0.0723445	-0.804685
-1.0026	0.362487	-0.035138
0.125451	-1.23238	0.324706
-0.161695	0.321195	-0.467191
1.16216	0.484976	-0.392655
0.748109	1.43845	-0.729117
0.0131906	-0.304496	0.934048
0.363808	1.11776	0.337587
-1.06813	3.30611	-0.830596
1.20516	3.56215	0.194316
-0.309129	0.21209	-0.128928
1.22167	0.00250565	-0.634302
1.79823	-1.10059	1.08905
-0.588711	0.201958	-0.194923
