4.2837	-2.99681	0.168709
-9.04138	1.41313	-3.89778
3.73855	2.72956	-2.0961
3.62389	-1.77331	0.603149
3.04255	1.71075	1.56572
1.49061	3.54426	0.975477
8.20683	-2.05746	-2.24364
-5.12091	-8.06808	-0.000212189
-1.55396	-0.951114	2.52174
3.36105	0.614243	-1.81653
3.67215	-1.29219	-0.61739
-3.15655	0.214668	1.10241
0.594327	0.0491082	-1.59514
6.11778	-2.90189	-1.75868
-5.40848	-1.41873	-0.877354
-1.647	0.515489	0.719711
-4.94603	-4.17706	-0.60031
-1.89739	0.340266	0.0709714
-2.81856	-5.97586	2.03797
5.55311	1.12131	-1.52691
1.69416	0.0626148	2.99883
1.67509	-2.76949	4.79551
1.03428	0.0944952	-1.26969
-2.00146	1.44193	-2.49654
-0.184279	-0.0328764	2.5189
-5.4827	-2.40706	-1.74555
6.1429	-0.960509	0.238581
-4.34672	0.353605	0.576498
-3.09793	1.92945	-2.86957
-5.13114	0.0314358	-0.344039
-5.15409	-2.05645	4.63956
-1.85943	1.0925	1.80522
-1.7686	2.3005	-0.214665
1.95665	-0.813949	1.3279
2.32998	-3.15353	-2.7463
2.00971	-3.58367	-0.0209278
-0.644361	1.82109	-2.6448
-2.6176	-4.10546	-0.894244
-1.20605	-1.64118	1.96301
-3.22002	-0.560132	2.25565
2.60968	-0.636056	2.21576
-2.89257	0.851001	-2.52766
-3.61145	0.640034	-3.16346
-2.9397	0.372701	-0.936842
-2.33184	1.17442	1.57745
-3.61483	-0.701703	2.23983
-5.01085	1.48073	1.98624
2.02922	0.571728	-2.47661
-1.80437	-2.08818	5.29072
-4.74191	-2.86738	-3.31229
-6.03872	-5.64093	-3.72575
1.56749	-3.81603	6.55325
-7.37825	1.33507	-1.61357
6.92823	-2.04063	0.533023
-2.50299	-2.11364	2.53707
2.53041	0.751801	-0.402759
-4.47046	1.97251	4.39454
-2.61546	-0.882564	-3.26228
3.57892	2.83543	-0.586092
7.30909	-0.608547	-0.860051
0.464248	-0.229614	0.349387
2.74954	5.61299	-0.0171129
7.41553	0.731531	-1.14441
6.43176	0.536929	1.9123
-4.08294	-3.42892	-1.82839
5.35763	-0.338373	4.0743
-3.36008	-0.992211	3.24164
-4.5294	-0.428561	0.980329
-1.35622	-0.416477	-1.08749
4.56235	-3.9029	1.23336
0.413863	-0.0523647	-2.14773
1.5709	-0.348087	-1.10764
1.52467	-0.0729949	-0.647494
-2.43945	-1.47003	-0.953987
-0.847238	-0.0146954	2.48418
1.13867	0.743376	-0.0516669
-5.54037	-4.59491	5.002
-2.0331	0.832824	2.91291
2.8454	-2.72522	2.03243
-4.78106	-0.910047	-3.39828
-4.18495	-4.77028	-4.52967
-2.20214	-0.686917	0.1662
1.24217	0.953602	-1.75476
5.08067	1.71272	3.91986
-1.20993	0.142465	0.708344
4.22909	1.5409	7.40211
-2.01909	2.83283	2.38
7.02198	-1.23365	0.840471
-1.14312	0.539218	-2.47511
-0.640496	-0.0886121	1.96355
-2.50864	-3.33588	0.488085
3.90015	0.293762	4.05532
-1.5635	3.33176	-0.988976
1.94204	-2.49891	4.45415
-4.59255	1.28043	0.673975
3.39227	-0.980835	-0.957043
-0.531567	-0.060141	-4.00504
-1.85456	0.340674	-0.86857
-1.09937	0.704346	-2.80431
-1.28456	0.133606	-0.770231
-0.43525	-1.05016	4.23516
-1.73276	0.603117	-2.48862
2.9503	5.5573	-2.20643
-5.20539	3.63718	1.61819
0.654744	-0.317794	-2.89321
4.71153	1.56212	-1.02251
-2.30659	0.749304	2.19349
-5.84049	-4.66814	-2.78551
-2.48996	1.31639	3.00237
3.17119	1.07055	0.585636
0.717823	-0.669079	-4.65295
-2.8741	1.85186	-1.00818
4.32684	1.2599	3.90824
-6.33124	1.91138	-1.83762
3.32244	1.68748	-0.747955
-1.05979	1.11674	-1.06471
-1.04595	-1.96035	-1.32729
2.41837	1.22376	-0.535291
-4.20264	-1.06242	-3.83458
-2.18584	-0.27672	-1.35339
5.16014	0.101878	2.35587
4.22075	-0.867421	-2.4703
1.69335	0.554504	1.53007
1.62478	-0.532805	5.26427
1.63187	0.642432	3.9155
-4.47989	-0.492614	1.13114
2.99462	2.41172	0.123346
-1.23028	0.593577	2.32
3.82982	-0.919066	3.16377
-3.39509	-1.69623	1.97093
1.29389	-2.34842	-1.12708
4.11319	-0.146727	2.79253
2.93965	-1.26629	0.155521
-5.84587	0.750835	0.157795
-2.9955	-0.105538	-2.4872
-2.75677	-2.50856	-2.94427
0.89355	0.625714	1.81161
-3.85423	3.39636	3.1761
-2.05661	-2.61519	-2.83904
-0.574928	1.27765	-3.29951
-3.17193	-0.612817	0.127378
3.31478	-0.450225	1.22352
-4.36464	3.94893	0.497518
-5.82294	-1.86569	2.23319
-1.33063	-1.09617	-0.816642
4.07022	0.186573	0.731477
-1.13832	0.0404874	-1.92863
-2.73477	1.19912	0.722427
-2.15562	-0.275486	1.67942
0.710651	0.919964	-0.999534
3.05191	2.71137	0.349185
-2.44816	3.05365	1.09137
-2.82104	-2.72921	0.572612
2.13629	-0.374647	2.61779
-2.83576	-3.26209	-0.641993
-2.00867	-0.835193	0.702794
2.49066	-0.303965	-3.76149
-0.890711	-2.02472	1.82562
-1.16733	-0.129739	5.10691
3.06754	0.0863694	-0.0454932
5.89628	-3.78583	4.05424
-3.96872	1.28645	1.71589
-3.3682	2.30874	-1.55604
-3.27452	1.72389	1.23655
-2.34604	1.55316	-2.84691
-3.63329	-4.56179	4.17422
-3.00519	0.688058	4.07838
-5.41718	0.901266	-1.51427
3.43288	0.656628	3.20463
-6.41088	3.91315	-0.0380869
6.74696	-0.222282	5.22672
0.996222	0.367659	-1.9951
-2.42191	1.29253	-8.96761
1.39194	-0.901602	-3.17032
-3.88135	-9.04161	-1.29194
4.2899	-0.611369	2.9438
4.99409	-0.919647	-0.862199
-1.37443	-1.29045	2.93327
1.31197	-0.302041	2.32295
-5.14194	-1.49532	2.10919
-2.02824	-0.791005	6.85314
-3.58948	-1.94995	0.395666
-6.26713	-1.03403	-2.16537
-7.4024	-1.52161	5.71616
2.32181	3.81182	-0.168343
5.92004	0.739904	4.3384
-6.86107	-0.27262	-3.1311
1.29922	-4.53036	5.22998
2.85746	-0.274038	-1.78801
0.613682	-0.225437	-1.53237
-1.04816	0.182546	-0.76126
2.30605	1.02036	3.97789
1.9802	-2.16325	-0.226955
3.14105	0.910134	-0.709305
-3.26012	-0.916343	-0.887307
-5.88238	-2.31708	-2.35997
-3.9506	-1.13641	-2.14381
-4.34894	-0.00280623	-2.18583
0.404311	-0.0564099	2.33688
-1.88093	0.6841	-2.82634
-0.76631	-0.642902	2.0864
-5.14263	1.36831	1.9856
-3.67275	-0.998891	0.0727013
-5.10363	-0.490047	0.649361
-4.83518	-5.14442	3.90632
2.48023	-1.55123	2.2982
-3.05629	-4.38338	3.96938
2.34672	-2.10597	2.44984
-1.57424	-0.0368881	0.720147
2.95961	-0.410588	3.97302
5.42059	3.61683	2.14746
-0.953864	0.3135	-3.01654
-2.05002	-2.50806	-2.01258
-1.30483	4.11696	1.77403
1.29272	-1.07132	-0.164372
7.50291	-2.19312	-3.99386
4.39821	0.191101	-1.92707
-4.32325	1.68476	-0.627052
4.6281	3.9495	2.11439
-9.00591	-0.887506	3.79891
6.80946	-0.562128	1.29737
6.56498	4.93201	8.08395
4.26796	-0.876376	0.514981
-3.05292	-7.90759	1.93511
4.11463	-3.36889	0.599256
-4.95502	0.693896	-0.602688
2.13118	3.90556	4.42077
-0.963735	0.634354	6.16625
3.72069	-1.50981	3.86795
2.35181	6.43066	4.63795
3.51457	0.670511	1.22662
6.98723	-2.41759	-3.50606
3.16396	-2.80993	-1.28705
2.02327	-0.115752	1.62611
1.95463	2.45525	-2.1754
1.77276	-0.593749	2.43661
-2.0125	0.31951	0.378317
1.7762	-1.76823	-2.44235
-2.35132	-1.56176	0.603447
6.8513	2.65012	2.11864
-2.76756	0.594153	2.54681
-5.18632	1.53455	-4.82035
-2.1622	0.915376	-4.45522
4.40002	-1.55776	2.1275
-4.04064	0.746901	0.630301
-1.04651	-0.140962	-2.76443
-1.63216	0.837931	4.89
-2.31856	-0.752612	5.38115
-1.46013	2.8706	1.24179
4.23352	2.60057	-0.201919
-0.862114	1.12788	-2.66295
-2.81219	-0.755855	1.70036
-7.13107	3.43499	-1.82839
-5.6478	0.426967	1.93693
5.19325	0.275268	0.787429
-1.23441	-1.1576	-1.53944
4.36254	-2.02269	2.29191
3.35678	-2.90127	5.64406
4.92295	-0.197874	-0.962588
4.34769	3.61193	1.5619
-2.77504	1.20906	-1.70183
-2.30396	-0.841794	-0.0515721
4.70012	4.09978	1.78216
2.75022	-1.61276	-1.33229
2.44829	0.84633	0.592701
4.71357	3.31597	4.15602
2.77235	-1.11382	-1.37042
-2.12559	-1.44886	-1.55972
5.51672	-7.44702	-1.07607
0.809058	-1.15032	-0.456396
-5.20292	2.84206	3.21935
2.24131	-0.101751	-0.119219
1.06578	-1.75748	-7.36258
3.41098	-0.539261	2.7516
-3.95476	-0.0501139	-5.11468
-2.32936	2.40131	-1.55139
-3.66974	0.102481	-2.91497
-3.07872	-0.619515	1.55254
-4.52514	6.01031	1.02609
-1.10022	-0.301439	2.39414
-2.79235	-0.119402	-1.3835
-5.69207	-1.2451	3.30183
2.79687	-4.39742	0.0879333
2.61849	1.88499	-0.189215
2.41862	-1.59546	-0.937282
3.24763	-4.28214	1.19641
-3.05374	1.80168	5.29627
2.80396	1.88246	1.04319
0.856491	0.361164	-3.41271
2.13447	0.834733	-0.672511
-2.49431	0.203424	-1.6755
1.86199	-1.39224	3.42896
2.36901	0.896445	1.58803
-6.2021	-2.81394	-2.63275
4.90041	1.30932	-0.0705314
1.82596	2.29842	-1.65009
-2.83541	1.57836	0.0402501
-0.791234	0.214799	-3.34769
-2.1714	1.40379	-6.91581
6.10677	3.55345	-3.35863
-3.70183	3.39002	-5.09606
-5.28769	-0.603324	-5.98227
-6.3321	-1.25374	-4.83369
-2.682	1.56285	-3.99247
-4.31717	-0.124031	-5.25634
6.03811	-0.40197	-3.02353
-1.01027	-0.517308	4.73789
5.13591	-0.172883	-2.15927
3.83076	1.52091	-1.26135
-3.13143	0.753785	2.50617
1.71817	0.506421	2.05871
-2.33054	-1.28683	-3.18046
8.20862	-0.370267	-5.05135
3.70893	0.613418	7.23659
6.6655	-2.67378	1.14922
-5.33524	0.667062	1.87153
-2.74154	-2.59156	1.1888
-2.93732	-0.00779989	0.608876
-3.86362	1.5395	-2.12067
-0.498788	0.0369612	3.92992
2.50085	-1.35756	-3.36071
3.39536	-0.708343	4.93962
4.26625	2.90295	-2.47584
3.76906	4.1245	-6.9198
-1.11785	1.36772	-2.45564
-4.04757	-1.47385	0.0727895
-6.71779	-3.94788	-4.03581
2.93944	-0.450707	-0.34252
2.896	-7.22673	-3.14192
-4.81177	-1.98778	2.75552
4.08003	0.194732	-2.32769
-4.20666	-1.77995	-0.0872625
1.18815	0.988532	1.83751
-1.29976	1.18361	5.03755
3.93684	-0.888419	10.425
-3.29019	-1.11456	-0.905211
-3.98295	-5.92786	1.97006
-3.7194	-1.90559	1.70657
-2.0149	1.67738	1.30486
1.95051	0.786382	-5.28411
-3.92266	0.241954	2.05123
-2.97773	-0.256128	3.98533
0.658781	-0.227143	6.84955
-3.37517	3.93198	-7.79256
-4.48893	0.429605	2.60661
2.84419	0.377973	-0.791438
4.32421	2.45806	0.44156
1.77328	-1.47442	2.49302
3.46343	-1.81318	-1.85097
0.861489	2.93545	5.9046
2.50418	-0.0642918	-3.02679
3.72147	-2.01443	0.569119
3.09594	-1.47885	1.51792
-5.78307	-1.97274	-2.5872
2.35232	0.630401	-2.34868
-2.85745	1.23581	1.59483
6.50608	-1.84151	-7.54837
-1.45187	-0.795752	0.838111
1.75238	0.918563	0.330797
-2.75538	2.23805	-2.06853
3.08311	1.3667	-2.67133
3.45427	3.45559	1.41202
2.30715	1.31039	4.93117
-2.30065	-0.0339048	-3.04712
6.25855	-0.934288	-3.74705
-3.59432	2.27016	-3.55018
-3.15712	3.68335	1.14474
5.15052	-2.04649	-0.217746
4.43779	10.3206	-1.54927
-4.7874	0.642105	-1.81803
0.201994	0.062614	1.8657
2.13311	-1.03453	1.80515
1.83389	-5.02003	0.67334
-6.15294	2.79228	0.467779
-0.896739	1.27907	6.21142
2.23845	1.44898	-5.36027
2.19045	0.473946	-0.66277
-1.04482	-0.562851	-0.25187
-2.13802	-0.424363	5.91037
1.79449	0.570023	-1.25317
-3.34786	-1.03484	1.33495
5.89809	-0.612667	-3.57622
4.18126	3.70229	-1.37862
3.65112	-1.83017	0.819869
0.166867	-0.100137	3.7275
4.97726	-4.86493	-2.06848
1.90229	-2.71625	-2.36451
0.948204	0.451718	-3.10327
2.21153	-0.159687	-1.96778
-4.05471	0.0561977	-0.881267
-4.46996	1.33794	1.70128
3.36703	2.52481	-4.98307
-2.78449	-0.374639	1.92051
3.47715	-0.0118533	0.0916152
0.707585	0.0138261	-2.93138
1.41266	0.101775	2.07941
-4.04463	-0.743156	-2.77643
-1.3991	-1.07972	-1.12538
10.4766	-5.05571	-1.34226
2.76677	-0.73935	-3.57428
2.82951	2.00031	0.430801
-6.51165	-3.63938	2.46254
-2.81574	0.408407	1.04962
4.40258	-6.02816	-0.380281
-3.9579	0.975962	4.07675
1.2461	-0.895647	-0.289522
3.62434	1.40378	-1.11349
-5.23268	-4.06908	-5.42399
-2.81835	0.153764	5.91954
-3.17095	0.0668874	-5.19156
3.0188	-1.2966	-0.839207
-0.679178	-0.597885	1.0038
-3.53206	-2.25485	-10.257
8.51276	-0.186821	-1.90475
-2.2106	3.43659	-0.384126
1.30819	0.327582	2.14552
-1.32948	-0.135592	-5.26574
1.93146	0.922286	1.52426
-0.687337	1.18124	2.34065
5.58328	-5.31961	3.26126
4.23192	-1.1535	-1.20976
1.84072	1.37714	1.8066
8.18035	-1.86766	5.61194
-1.6446	-0.030779	-3.3198
0.847208	-1.23279	1.71964
5.41114	-4.13285	-0.207907
3.2031	0.346803	0.74787
3.23183	0.638345	-3.89911
4.67106	-2.42087	-2.5968
-1.85383	1.08965	-2.97159
-2.35803	0.802603	-4.0145
-3.2044	6.5313	-4.73645
1.03466	-0.61479	-4.5046
0.423177	-0.0724021	-0.966577
2.67982	-0.27646	3.37239
1.3166	-0.868699	2.73295
-8.13339	6.39506	-0.0632455
1.88497	0.99107	-1.54795
-2.18815	0.663948	1.51996
2.99659	1.59707	0.913518
-5.01534	0.833415	-2.57666
2.75002	2.97183	0.609184
3.98972	1.54112	-3.68828
3.36616	0.712311	3.11875
-4.95333	-0.778902	2.20634
-1.13159	0.0115723	0.297992
1.28477	-3.13114	2.09836
0.741499	0.777459	1.25579
-1.83693	-0.594378	2.51044
-1.5105	-0.41132	1.01396
4.37988	0.198097	0.648508
-2.39181	0.852142	-6.90335
0.831872	1.10768	1.50105
-1.54249	0.297205	2.68999
-5.49029	4.38567	-0.35458
-0.901956	-0.0138577	3.55911
3.1108	0.547633	-2.82454
4.24317	-6.34042	1.41088
3.70942	-0.84481	-1.07527
-2.10862	1.36045	-2.4887
-3.28967	-0.607852	1.11422
6.54497	0.270362	-1.83675
1.75378	-1.80161	4.12127
-4.67287	1.13994	-0.659128
-4.4977	-1.86662	-3.29493
-4.14754	-5.31232	1.60103
4.30533	-0.420242	-1.57736
0.42443	0.224781	-2.73978
-1.03974	1.59933	1.09217
-3.30816	6.61774	4.87649
2.57056	-0.526154	0.0486116
8.64688	-1.01434	-2.93197
-7.75816	6.49504	-4.7866
-2.33694	-1.1193	-5.13584
1.22943	0.80829	2.47656
-1.92907	-3.03344	2.62797
3.93275	-1.99883	0.598062
1.9338	0.10961	2.74977
2.83303	-0.966373	2.88383
-1.46452	-2.06341	-2.27867
1.75955	-1.52607	1.48321
-1.1803	0.541107	3.05094
2.60589	-1.11852	6.05183
-1.27853	1.30813	-1.06256
-5.55398	0.418122	0.813892
-7.78244	0.995216	4.47203
-3.58809	-1.83568	0.581412
-6.96005	-1.76016	-3.63704
2.38172	1.46654	-5.49347
-3.51348	-3.73859	-2.5037
3.27668	1.27054	2.44058
4.08648	0.999983	0.424525
-1.47962	0.894075	3.16974
-2.37617	0.638222	-1.35084
4.87719	-1.88882	-3.34752
-2.01472	-2.87802	-2.13546
-4.59887	-1.08377	-5.7105
-7.90423	-1.41313	7.17904
-0.921856	-0.160655	4.14807
2.74952	1.50615	-2.283
-0.462791	-0.851528	-4.56902
6.14752	4.44231	2.19133
-4.72482	-2.56908	5.01851
4.07882	0.523776	-2.39442
1.1402	0.891949	-1.13298
9.26884	2.23126	6.78779
4.75204	-0.503494	-3.26601
-2.32797	-2.49751	1.63036
0.687968	0.308418	-1.75669
2.10466	-1.08268	0.690616
4.45299	-1.05668	0.165907
-6.36422	-1.05365	-3.37429
-6.8493	0.887574	0.851275
1.22827	-2.37671	-3.41631
3.38989	5.59725	-0.245909
4.75216	-2.00317	-2.35034
5.00247	1.58075	-1.50641
-4.81562	-3.87101	-0.997104
-1.95904	-3.22327	-1.53179
-2.92055	2.83278	-1.25204
6.14807	-2.1339	-7.446
-1.83245	-3.20086	-2.28661
8.4908	-2.96956	-1.78389
1.68872	0.809672	-0.081559
1.37497	0.187766	-0.977478
1.17816	1.48223	-1.63902
-2.7389	0.960967	2.68792
1.72413	-0.787344	-3.62468
-4.36816	0.590436	-0.339901
-0.850571	-2.16232	-0.576506
-5.09779	-1.91949	-2.23396
-4.1023	0.0156947	-2.32142
-1.06542	-2.10003	0.340679
3.39409	-1.68501	0.93495
2.79079	1.43682	2.28195
-1.66767	2.23541	0.683124
5.20293	-0.336464	4.56344
-2.13723	-0.489924	5.17856
4.94898	-0.181514	1.10471
-5.06398	2.46153	0.281119
6.30548	4.55127	-0.620399
0.457862	1.4673	2.26544
-2.11622	-1.811	-3.78084
-6.84014	2.71368	-2.38032
2.88021	-1.67819	0.509166
-0.456593	0.718763	-2.34798
1.03342	-1.34175	0.448128
-1.38478	0.696879	-0.133533
-0.80284	-1.38068	1.12323
-6.85664	-1.52921	-2.61534
0.159308	0.101418	3.50216
2.24084	1.24828	1.40673
-2.97927	3.75724	-1.9898
1.7359	-0.809592	-5.40899
1.37384	-3.23785	5.46053
2.79073	-4.0186	-0.515566
3.51325	1.26392	0.611328
2.60747	0.470387	5.1785
-3.52292	3.76158	-6.37592
-3.04493	-0.0663438	1.44126
2.07395	0.884492	-0.922825
-0.582482	1.61451	-10.0829
6.98984	-1.29673	0.501071
-4.46923	3.24502	0.0103323
4.4833	1.19044	-2.11619
-1.97576	1.38373	0.0304812
-0.815081	-1.07462	-3.93943
-2.64386	-0.222282	2.72435
-5.21125	1.35082	-2.04399
0.402195	-0.504283	3.29368
-1.68815	-2.59984	2.02987
-1.24888	0.932131	4.55709
1.76423	-2.84165	-1.21823
-1.2042	-4.30968	0.362842
5.01226	3.10565	-2.69854
-5.3296	-0.441437	7.90054
-2.57998	-2.49065	-1.96538
-3.212	-3.58162	1.87802
1.77857	0.0467968	-1.33868
-0.017449	0.0318579	-4.24461
3.38759	1.47581	-4.69419
1.09535	0.442143	-1.74719
-1.44319	0.557418	2.43287
-2.89573	-1.33558	4.03885
-1.47737	-0.0204301	-1.2578
1.12275	0.289551	-1.49096
-4.72629	-0.13491	0.106216
-3.95826	-0.940035	-1.65033
-2.07248	2.82359	-2.97047
1.49919	-1.18675	0.0439652
-1.019	0.191675	1.18594
4.60207	2.10237	0.0926238
4.39896	-2.92851	1.91611
-6.07343	-5.04107	-1.82183
2.58193	-1.76956	2.08999
-2.79203	0.0601508	-2.31056
-1.58153	3.87396	2.43199
6.2654	1.96605	1.3082
11.0676	2.08743	-2.39996
-2.85058	2.93597	-3.87522
-3.89858	-2.98369	3.38573
0.339232	0.509919	2.43714
-3.74208	-4.30905	7.97631
-3.19779	-1.16039	-2.27731
-3.46225	-1.32196	5.92735
4.43349	1.70355	-2.21177
3.33944	-1.69458	-1.85721
1.27649	-0.321936	-2.12488
-1.53654	-0.12438	1.23429
1.75567	-1.70516	1.99919
0.801219	0.1088	-0.589503
2.83263	-1.51432	-1.56475
-4.2351	-2.16287	-6.44014
-1.45587	1.21405	-3.40659
1.21946	0.272062	-1.31024
3.41065	2.8149	2.82809
-5.02047	0.900405	-2.06255
6.74968	1.66656	0.761118
-4.64731	-2.94582	0.531236
-0.283143	0.0938597	2.4691
4.05087	0.269319	1.51386
-2.95289	-0.168355	0.364694
-0.831182	-1.22785	-0.563119
-2.79518	-1.08867	-0.830557
-1.90088	2.587	-2.2958
-3.54414	-0.0810958	1.18754
-3.43282	1.01265	1.94667
1.87359	2.48148	-0.420813
-3.00069	0.859217	-1.58935
-2.94143	1.3843	-3.30345
-3.60766	1.27603	-3.641
-4.11266	-0.748621	-0.591031
-10.4083	7.44939	-3.91331
6.7053	1.8863	-3.69734
-2.54985	-3.49081	0.374144
-6.68474	-2.39353	1.10139
-2.71144	-1.50679	0.321483
5.42004	-0.679417	-7.02525
-2.29678	0.341572	0.145972
-2.13661	2.26861	0.18678
-3.36691	1.04305	0.048867
-7.9243	-2.1604	-0.148095
1.84926	0.416214	0.373172
-2.70181	4.26717	-1.54495
-3.10374	-1.72517	-1.23337
4.47643	4.2569	-1.66999
-0.98985	0.818626	0.103965
2.97072	-1.61046	-3.25815
1.86669	-1.87998	-6.01098
-4.45347	-0.557142	3.87507
-2.45107	-1.80076	-2.05814
0.754986	-0.567092	1.23874
-4.66379	-2.2342	-3.53829
2.43322	2.58533	2.53374
-1.95596	-0.295027	-2.13493
-0.293795	-0.117309	-1.00249
5.6633	-7.21553	1.82653
-3.58734	0.983277	1.25411
-2.75914	0.51461	-0.112184
-5.80933	0.167673	5.51365
4.51744	2.49908	-7.27119
-9.60937	-2.16089	0.719542
5.24882	-2.59914	3.56252
4.7596	4.87797	0.911355
-8.31163	-3.59341	-0.737988
-5.96279	0.251448	-3.69467
-2.9282	0.924615	4.15825
-1.63071	-1.16763	0.672696
4.26727	-2.25329	1.98779
3.08805	3.66014	1.11435
-2.04014	2.14401	-1.36587
0.97093	0.10573	-4.14201
-4.21738	0.44606	-2.06209
3.39704	-1.64341	-2.01785
-5.14059	-1.48999	-3.38247
3.34767	-0.0489356	4.56294
2.11082	-4.01978	-1.1464
5.49601	2.68933	-0.270648
-3.44687	0.0525258	0.293003
5.32041	0.599943	0.502675
2.06008	0.664222	-4.74625
4.60568	-2.55609	-2.1525
3.9414	0.643972	4.43179
-4.55112	-6.77037	6.40713
-0.375576	-0.23671	6.00542
1.40736	1.83146	1.05208
-4.48456	3.81819	3.07248
-3.05855	0.315044	-0.234731
2.22148	0.507914	-3.31026
3.43104	-0.74592	2.03408
2.94528	1.86519	4.46014
1.05498	-0.989194	-4.05752
3.20389	1.99931	-3.43199
-5.62842	1.59445	2.90803
1.35779	0.711455	1.65178
-2.82902	1.15226	0.0565826
5.05507	-1.02569	-1.40819
-3.03425	-0.812131	0.417866
5.03318	2.42227	1.78839
-3.41655	0.11841	1.48076
2.89633	-4.15232	2.74854
5.26569	-5.93745	0.0087229
1.90529	-1.34739	2.07234
-2.13242	-0.305168	1.57154
1.77942	-3.65674	-2.19652
0.489828	-0.395671	4.94736
-6.07785	1.24452	-2.89192
2.66235	1.28006	-2.27518
1.20406	-0.60073	-2.1692
1.28392	-1.32671	-8.31871
9.5584	-3.28378	-0.404758
2.28374	0.448562	-1.7391
1.28375	-1.60168	1.59877
1.01715	-0.973533	-1.9647
1.18233	0.393189	4.93702
-2.13386	2.72237	-5.26833
2.95275	-1.17419	0.528209
-2.0008	0.731486	-2.11698
-0.538021	-0.0261567	-0.986431
6.54353	2.96368	5.25949
4.99779	1.75786	4.30212
2.04802	-1.55173	-1.26876
1.75878	1.09325	3.05469
2.86373	1.02635	-0.593214
2.93767	0.0430839	-2.52156
-6.65441	0.954625	-1.95631
3.93331	1.91703	-4.60498
1.79448	4.43573	-2.50513
1.11662	-0.66523	1.59947
-3.25216	1.94896	4.30524
1.76403	-1.07092	2.11629
-2.90093	0.265717	-1.55337
-5.53553	1.13202	1.47344
2.72719	2.08039	-6.06608
1.75361	0.619856	1.25832
7.00811	-3.45897	-1.9061
2.41871	-1.17656	0.465463
5.12724	0.144733	-3.66237
1.21016	-0.619225	-4.53219
3.28719	-0.605171	-2.86385
-2.9973	1.61157	-4.44101
1.58062	-0.457443	3.10521
-4.06405	2.03986	-2.10061
3.28875	4.02786	-5.47052
0.594751	0.460007	-2.03878
-2.56967	3.75523	-2.86895
-5.946	3.90058	-0.573831
4.05926	0.634231	-0.805229
-1.90076	2.9421	-1.58992
-4.75258	-1.52702	0.597387
-0.864567	0.212816	4.11671
-4.66366	0.559494	0.999315
-0.786718	0.0691021	1.60576
-1.31503	0.67225	1.09421
-0.987195	0.289346	3.89892
-3.08821	1.6425	4.18044
0.54654	-0.405029	-2.78634
-2.04928	2.46471	-2.16596
1.06217	0.256219	0.0517318
-1.5837	2.18843	-2.07735
-1.80353	-4.74153	-5.73547
-1.12955	0.256112	0.506249
-1.55611	0.888892	-2.80374
-1.66683	0.062576	-4.98841
2.65352	2.1067	2.98667
0.515701	-0.028608	0.857009
-1.53463	-2.52648	2.40417
-3.62465	3.41927	-0.483533
-8.57132	-1.08557	3.72639
1.8759	0.417028	4.2967
-1.37607	0.366473	2.67692
-1.25451	-2.161	-2.36332
6.93769	0.827981	-1.50796
-11.5962	-1.89865	1.11783
2.88536	-2.77232	-5.30538
1.85533	0.10382	-1.43631
4.02665	-0.39246	4.71909
2.18699	0.966917	-3.6192
-4.13982	0.910165	3.76635
-1.14969	-0.012772	-0.529361
4.94081	-2.54108	5.7845
-1.58941	-0.691235	1.8954
-3.83247	-2.54896	-0.98488
-1.632	2.49196	-3.07026
6.33697	0.331597	4.19648
-3.37104	1.51829	-0.954329
-7.02911	3.75474	-0.357355
5.25382	-2.44647	0.0938174
-4.08788	0.213935	2.58099
-4.01503	-2.27806	3.71321
3.06154	-1.61916	0.343326
3.95431	3.77146	-7.96291
3.95455	0.686142	1.19867
3.83974	-1.27131	5.36351
-3.12748	-2.19199	6.07365
-3.03384	-1.78305	0.628108
-2.80131	-1.04199	3.89015
-5.27239	-1.66285	2.27424
-5.15289	-3.50092	3.77896
7.4831	-3.37741	-6.67417
2.51917	0.0987286	3.46023
3.96617	-0.0315316	-0.785013
-3.61298	1.27865	2.19661
-4.90733	0.209594	-1.09959
-3.90604	0.262845	0.311126
-1.39194	1.5635	-2.81455
-3.33978	-0.29355	-2.80887
-1.57087	1.43965	-0.967208
1.51717	0.104855	-0.235699
1.61093	-0.344927	-3.17685
2.00581	1.37566	1.61528
1.35288	1.32825	3.331
4.3499	-4.78939	-0.0387708
1.69541	0.557982	-1.46912
1.14304	-0.197062	-5.4058
3.49027	-4.90004	-0.91412
-1.9903	-2.26675	0.909487
-3.19584	-3.1351	-3.18831
-1.88926	0.337022	0.710236
-2.65289	-0.580408	-0.944987
-5.22919	0.285074	-4.40056
-2.81345	-1.79079	-0.541545
2.88627	0.722711	-2.97319
3.44849	-1.29937	-1.47533
-1.79475	-1.4168	4.79191
-5.7927	1.26195	0.0205363
-2.22906	1.10853	1.47932
0.731019	-0.0933295	-4.28409
-5.50201	-1.26966	2.51475
-2.69773	8.53772	1.87358
4.73902	-0.500566	-1.08798
3.37208	-1.07287	1.64967
-2.93677	-1.46922	6.5305
3.15871	-0.875682	2.10596
2.29316	1.49048	1.9344
3.05649	-1.98859	-1.34018
-3.73477	0.80793	0.707528
1.33031	-1.12312	0.953598
0.477482	-2.34074	-0.932905
5.28576	1.81211	-2.12331
0.512371	-0.543555	-3.29506
-0.787168	-0.841282	0.826627
3.16895	-2.05854	-0.946108
3.26534	-1.94945	3.05804
6.17684	-3.16823	-0.300775
-2.04108	-1.72124	1.87994
-0.401002	-0.0370329	-2.29319
2.29178	-0.263848	-3.20633
4.6933	-0.643098	-5.68351
3.49913	-1.53636	7.37274
2.83599	-0.28205	2.95303
-4.41167	-2.16001	5.6843
-1.51056	3.33558	3.40095
4.09851	-2.2491	-3.47528
-3.57368	1.18098	-5.43882
5.75318	-3.56276	-0.872983
1.40709	0.0290239	6.75222
-7.90202	-2.89214	3.47889
-4.46597	-0.0549044	-2.43982
2.99953	1.43183	-6.53133
6.02513	1.03247	-1.42494
2.3427	-1.39771	8.53378
-2.37923	-1.25861	-2.93129
-1.6971	-0.448194	-3.60262
-2.31117	2.04725	-2.62162
9.75816	-0.0654944	-4.32331
-3.97483	-0.0197762	-0.670639
-4.66268	1.23537	-0.521194
6.30875	-2.38819	-2.48175
3.81038	0.0603519	1.26902
2.43019	1.05571	-1.50235
0.729538	0.0218127	-0.740936
-3.86081	0.683924	-1.69839
-4.71747	-0.46382	-3.09018
2.17314	0.710017	2.05309
1.51911	-0.0800276	-1.92834
-6.23569	1.1964	1.33834
-3.31439	1.38329	1.58773
-5.23319	-0.056868	-1.22379
-8.88107	6.67553	-1.52641
-5.34431	-1.4629	5.97442
-2.86052	0.575269	3.03566
1.38682	-1.21428	1.04183
8.57802	-6.31709	-4.70785
-5.4314	-2.64774	0.192089
2.14724	-1.14442	-3.23923
-5.14082	-0.885847	-2.25979
-1.09899	-1.55499	-5.17423
-3.86634	-1.80342	1.81917
3.58942	-0.670546	0.355803
-2.60053	0.690462	-3.77702
2.19312	0.809336	0.0626655
-2.82759	-0.0459353	6.90043
-4.33862	-1.64487	-7.05703
-1.91344	9.21235	0.484229
-3.59578	4.41572	-0.412395
2.29245	-0.939256	-6.03839
-8.13328	0.845946	-4.8264
-3.08252	-4.20568	-6.20621
-2.51525	3.52949	-0.779262
-1.42779	-3.6714	0.6896
4.17202	-2.21987	-0.861597
2.62341	3.01109	-5.53299
2.176	-2.11446	2.06968
2.45552	-0.309023	-4.18472
8.67733	-4.76399	-2.04944
1.10378	2.03163	-0.590656
-4.2229	2.1265	-0.248946
4.1588	-0.645677	-0.0581334
4.25191	1.00435	-9.22944
5.86746	1.653	-1.19339
6.69859	-2.57292	-0.051504
-6.48386	-2.28095	-0.414328
4.55028	1.18901	0.121121
-2.2985	-0.611532	-4.4111
1.85364	1.78724	-6.33541
-2.45433	-1.0033	6.00215
1.35377	-1.7867	0.409552
4.44682	2.54113	2.81606
2.57926	-0.189076	-2.85983
1.56696	-0.597178	0.0953839
2.78089	0.777551	-2.27303
-3.76308	-1.79991	0.760171
7.11219	4.27868	0.326557
-5.44736	-0.122121	2.70844
6.19464	-3.10365	-0.680321
9.65984	-3.96222	-0.842926
-1.65549	-1.35524	-0.851196
2.39066	-0.530815	0.550938
3.92435	1.91356	-0.121348
-1.43722	-0.44316	-1.95648
5.49377	-1.27558	1.39024
-1.39419	0.444156	5.61939
-5.11964	-1.35004	-1.2743
3.13983	-2.39392	-1.0695
3.34478	-1.73991	2.19616
3.02855	-2.27512	-7.33966
4.86117	0.497813	-4.44607
-1.00598	0.0897531	-1.71625
-1.45278	-0.226679	0.618039
-3.84944	-1.13996	-2.07541
2.50479	0.591896	-2.81094
2.44146	1.06276	1.5168
-4.031	-1.77979	0.980643
-3.45394	0.097916	-0.77416
4.18368	-0.188329	0.455893
2.36187	3.75449	-2.08028
3.50293	-3.73503	-0.0491791
-1.55293	-0.366903	-1.63042
1.40685	-2.11103	-1.79988
2.67824	-0.0590039	1.08379
2.80382	0.172827	-4.23515
-2.74158	-3.53546	1.80484
-4.91419	0.258732	2.78683
-4.07894	-4.27544	0.253966
1.83137	1.90116	0.425177
-2.85127	1.34344	4.79378
-5.99139	4.33408	3.77974
-4.49778	-2.96145	-0.125625
-4.74373	0.721171	-3.57834
-3.50898	0.974897	-0.970359
2.28895	-0.477316	2.84296
5.01688	2.17662	-2.82923
1.43067	-0.924369	-4.40093
4.83025	0.587134	3.15201
1.55784	-2.3752	-0.392274
2.37301	2.18106	1.60048
-4.09235	1.92825	-0.11054
-6.91554	-0.126205	3.26939
1.33983	-0.624289	6.73734
3.51949	1.47116	2.1443
2.05485	1.05633	3.86306
-4.94703	-1.51367	-1.13194
-1.69521	0.015544	-3.33142
-4.46968	1.10498	-5.63291
-1.94601	-3.38578	-2.18798
4.88575	-0.92293	-1.0442
-1.7342	-0.401593	2.60296
-3.10932	4.48572	-2.94613
-7.58232	-1.55637	2.74517
-3.79275	-0.696843	-1.33263
-4.54251	-1.74724	2.48322
-3.14799	-0.046539	1.9008
3.95502	-0.636969	4.09933
3.7754	-1.58309	0.0594529
-2.17009	0.211825	0.202726
1.04957	2.0583	-2.12369
-5.72114	-1.87102	-1.49874
-3.36434	-0.0818483	4.46014
8.28503	-2.2631	-2.9293
1.80268	0.74609	2.0224
2.23282	-1.75631	1.39401
4.05304	0.471369	5.16547
1.51198	1.26956	3.14035
-0.467329	-1.92368	-2.04061
-0.577096	-0.625776	6.12316
-4.39585	4.08851	-2.36048
-0.621053	-0.609613	0.262262
1.15237	-0.0466503	1.36442
-3.19532	-0.224255	2.15947
-2.79486	-2.7335	-0.327529
5.16813	-3.44718	8.66531
-2.97401	2.47801	-3.97429
-3.39606	3.49688	-5.32452
2.9067	-2.73286	1.42866
7.45577	-5.93231	-2.89917
-2.01159	1.52861	4.10819
3.06512	-8.62029	-1.02384
2.48947	2.96761	-2.15953
3.09463	-0.897661	-1.04617
-1.46843	0.55494	-4.60179
-4.62357	-0.038278	3.32132
3.67168	-0.66618	1.02371
3.32327	-0.226771	4.3749
2.3543	0.0333451	-1.53906
-1.14386	-1.23206	-5.04298
-2.76438	3.73799	-0.0984822
-1.80785	3.84253	0.756243
-1.66954	-0.130512	-5.36375
-5.91831	0.949998	-1.79084
3.71891	-2.37671	0.0196424
-5.78192	-0.263876	-3.94864
-1.90431	0.497462	3.26199
4.48935	4.69543	-3.13949
2.9937	-0.825672	-4.25559
-2.96111	0.438289	-1.24968
5.98219	-0.647317	1.73558
-6.0009	0.446212	4.60153
-6.28262	0.202714	3.65552
-2.08695	1.91708	-1.03609
2.96022	0.457136	-3.71251
-7.08962	-1.8737	0.740872
3.90738	-4.13242	0.949493
-2.13913	0.761579	7.55739
3.84057	-4.15444	-1.26126
5.13496	2.39976	1.75774
-5.23854	-4.80978	2.52514
-2.98878	2.39138	1.21971
1.63024	-1.07085	1.28068
1.29554	2.06478	3.2382
2.99363	0.0751783	3.29915
-2.91012	-0.513123	1.84131
4.64419	0.419407	7.86994
-5.04857	1.10567	-1.57738
3.20378	4.29544	-1.63297
3.94702	0.346369	-4.61342
-3.20325	2.41087	0.32688
-3.26844	-1.28551	-1.52092
1.35862	3.47888	-2.53719
-0.391277	-0.0591049	1.59753
2.97928	1.24018	-3.43173
-3.15638	1.46312	4.55506
-4.17777	0.54236	3.52892
-1.03074	-0.892501	2.749
0.642359	0.360757	4.47624
2.94583	1.72047	0.501189
1.32315	-0.203554	-1.75598
6.5646	-1.7597	-5.19119
-3.29588	-9.47984	4.05323
1.1707	-4.28548	-3.37255
-0.565661	1.56475	-2.59319
-4.66168	-6.24546	2.7799
-3.6792	2.86814	-4.19438
1.91795	4.07191	-0.606093
3.76917	3.5291	-1.36214
4.30187	2.05658	-0.114345
-3.53802	-3.96823	1.52751
1.37573	0.566054	-5.66757
2.94792	-0.647462	1.36
-1.78009	0.0749209	3.21866
-7.47446	1.16227	0.592954
4.0416	3.22488	3.00822
-6.33631	-0.0693488	-5.53532
-9.67801	-3.31113	1.33467
-4.50297	4.94198	-6.9383
-3.76524	3.41494	-1.22618
-2.83463	0.937034	0.31147
5.28634	-2.31909	-0.998487
-1.40954	-0.341493	-0.429798
-4.83342	0.171532	-0.115819
2.67998	-1.2736	3.92181
2.93749	-0.371666	2.37191
-2.35047	-0.335373	-0.498031
0.931971	0.90493	-1.60032
7.02821	-2.5259	2.79088
2.07299	2.87152	1.05047
3.85954	-1.02088	-4.16844
0.639286	0.567604	-3.56783
-2.21481	-0.539853	2.96504
2.73376	-0.898975	3.70997
2.60654	0.45606	3.82877
1.95048	0.72296	-0.777152
2.21351	-4.97533	3.52988
-1.94264	-1.53976	-2.86681
3.86829	-1.92233	-0.660761
4.35221	3.26412	2.63712
-0.948622	-0.727479	2.4329
-1.04624	-1.95759	-2.49933
5.88654	1.22674	0.536579
-1.52881	-1.03446	-3.94454
-4.67765	0.567179	5.593
-6.87262	-2.00704	-5.24913
-3.45835	-1.98595	0.597272
0.178007	0.140951	4.6863
-1.60513	0.867179	-2.21314
-1.81018	1.26343	2.40978
2.01346	-0.60522	-2.76897
1.75131	-1.39339	-0.817125
-4.22331	0.836752	1.38149
3.52258	0.182746	-4.31316
-6.2141	1.61952	-2.28982
-5.87099	1.03462	-0.360111
0.685045	-1.11286	-10.2473
-1.08595	0.836794	1.06848
3.04827	-1.42633	-1.56581
2.54626	-1.86587	-2.8391
-2.45789	1.11347	0.978097
-1.0885	-0.142803	-1.60874
3.05369	3.41917	1.07807
-0.755007	0.311364	2.11774
0.911442	0.0600441	-2.97688
2.73912	-0.0311319	-2.69069
-5.89323	-0.49441	-0.674051
3.16583	1.38459	-0.435399
-2.83419	-2.13192	-2.53779
-6.30412	4.68481	-2.18707
-3.93936	2.46271	-3.50192
3.49373	0.534412	5.68122
-3.75322	2.33419	-5.70705
-2.33866	-0.843748	-0.445496
-3.32348	-2.47865	-8.05361
3.4918	0.37491	4.41225
2.58032	-0.418342	5.68973
2.30092	-0.105894	1.13189
-3.78461	-8.09722	-0.90509
-4.29873	2.62692	-2.95331
3.3561	-2.09671	-3.71698
5.17943	-2.17004	3.44009
2.19501	0.309313	0.191147
-1.974	-0.0822979	-2.35192
-4.04292	-2.92091	1.66664
3.13381	-2.11181	2.76681
-1.94012	-1.51367	-3.37623
-2.0933	-0.0577325	-3.87694
3.57457	1.95855	-0.014537
2.27487	0.102412	4.72752
4.10478	3.27015	4.25707
4.23888	0.612045	0.495909
2.96116	-0.250856	-3.3026
2.46901	-1.97587	3.28773
4.34136	-0.380841	3.41113
-0.68767	1.41363	0.681146
2.28047	0.494042	1.3766
-3.69565	-2.07229	1.82973
-2.04496	0.242762	-4.32716
-1.74434	4.31853	2.79788
1.3194	0.299251	2.89432
2.42722	-6.18259	3.77306
-3.90187	-0.75887	-0.096447
1.0127	-0.220381	6.33189
-3.13836	1.23406	-1.24609
2.53959	0.663613	0.477995
-6.70179	3.41896	0.498209
-1.78695	-0.962673	-0.608806
-5.42713	-0.80933	-0.86191
3.25374	-0.954032	2.75561
6.03768	-3.11602	-0.852351
2.75957	0.912469	3.38903
-4.04117	0.170903	1.48726
-2.18388	0.685112	1.2816
-1.61036	0.423235	4.37963
0.367735	3.89024	-1.60147
0.891941	3.43712	-4.85749
1.27888	0.697023	-1.62146
-3.54212	-3.03697	-5.3854
-4.27618	-2.43582	-4.20014
0.963012	2.49272	0.762622
1.54323	-0.229888	2.70523
-3.1208	-0.349901	1.2655
5.99214	-1.33779	-0.989753
2.28917	0.261881	-4.96369
4.06098	2.72417	0.382475
-2.09283	-1.32349	-2.34981
7.91849	1.15609	-3.36208
4.75699	-1.61957	0.473563
-4.47144	2.36471	-0.917431
-2.94865	-3.19335	-5.0781
-2.20328	-1.33471	-0.878663
-8.61082	-3.58014	5.08541
5.11511	0.584135	-2.63259
3.37245	1.82887	1.20596
-1.47801	1.02756	-1.74891
-5.75352	0.181628	3.65131
-1.23325	0.468985	1.28169
2.52071	-0.00962093	0.683286
3.46458	3.66393	-2.12459
-1.10997	-1.18015	2.62431
-7.84116	0.21714	1.26086
-0.890835	-2.06455	-1.03648
-6.34865	-0.34525	-0.518967
3.74881	-0.558242	0.21026
1.72362	-0.979054	1.2432
-2.95842	0.340629	2.58019
4.40466	3.50663	-6.31618
0.564901	-1.08001	-1.55893
4.34346	-0.328935	1.16095
-3.27699	4.01591	0.525703
6.99569	-1.1096	1.75793
2.87024	1.84335	0.345464
-6.15834	-1.22895	1.82132
-3.00023	-4.17127	0.312953
2.46665	1.19313	-0.0812939
1.34335	-0.245443	5.63096
-4.58997	-2.7925	-4.43496
-3.02328	2.61455	2.08275
6.84395	2.32335	-1.86315
-1.01485	-0.416192	-2.57806
-6.01851	2.36082	-0.427664
-3.72386	1.86908	-1.67252
6.09869	2.77355	3.1857
-1.90422	-5.49603	1.35888
2.60158	2.63464	-4.98336
-1.53482	0.720451	-1.67917
2.15303	-1.28839	-4.86384
-3.12821	-0.83663	-3.71854
-7.91384	-0.981305	-2.58621
1.44551	0.974935	-2.95823
-2.48226	-0.617549	2.52284
2.45094	0.955639	2.71941
-3.8442	1.8583	4.36006
-2.76169	0.988943	-4.51333
2.7898	-1.41227	-5.43802
6.56655	-4.78094	0.558068
9.05871	-8.08084	-1.7355
5.0846	0.687648	0.185171
5.50102	1.1045	-0.91356
1.60348	2.09853	1.0496
3.37096	1.77808	-3.85349
1.83655	1.30794	4.32921
-1.87666	0.218702	0.446828
1.0229	0.681768	-0.898105
-10.0491	0.395275	3.7745
3.42316	2.02848	-6.18761
5.81385	-4.11047	2.16432
-3.33639	1.03164	2.14034
-2.78012	-2.64351	-0.208981
-2.74184	0.817042	0.553654
-7.86314	0.842451	-0.328096
2.93682	-0.462823	3.25476
-3.09994	-2.62809	0.428415
0.177745	-1.07179	0.363853
6.58925	0.905058	1.48837
-3.87278	2.22658	-3.33349
2.20807	-0.807546	-1.79253
2.32387	2.40548	2.14088
1.25735	-0.254606	-1.09183
-7.15114	-3.89228	-1.36714
-4.24775	2.34146	2.868
-5.35272	0.234151	-3.66913
1.00851	-0.623138	-5.22447
1.79268	-0.251591	-3.20991
3.59343	1.08496	-0.214064
-3.97935	1.97016	-0.984574
-1.93358	1.68735	-3.2808
-1.8884	0.126406	-3.57911
8.88641	-5.28805	3.77303
0.425922	2.07636	1.12154
3.57579	3.31525	6.81584
4.63389	2.92116	-0.830912
-1.44098	-1.04113	-2.68839
-8.08373	-3.56431	-0.373594
-4.49058	-1.60284	-0.867057
7.04675	-2.54019	-1.22578
4.69443	0.238161	1.76317
-2.99321	-2.44876	5.73421
1.38437	-0.799335	-0.909377
-4.93311	-1.73505	-2.18237
-2.54026	2.66297	1.29435
1.68405	0.454109	6.11171
-3.50367	-4.91058	1.31782
2.31408	1.60637	0.44109
3.04558	-0.411337	2.39324
-3.09697	-0.672664	-1.53582
4.56321	-4.50343	-2.82027
2.5887	-1.94073	0.381791
-4.34364	1.02468	-6.30337
4.36273	1.75718	-2.70984
-3.75869	2.21699	-2.58565
-2.37381	4.09237	-0.946371
4.64899	2.97729	0.195768
5.99554	-3.65501	1.32957
-3.52616	0.777741	3.74836
2.80217	-0.235349	-2.0802
1.28913	0.866997	1.67102
0.419156	0.0480771	-2.90273
5.33479	2.35865	5.9027
0.384704	-0.465372	0.921123
-1.67339	1.39096	-0.0129536
4.36637	0.662262	-1.58682
2.42155	2.89533	3.75045
3.30245	2.62616	-0.723465
-3.95728	-0.0398115	-2.32709
-3.17803	-3.61432	3.02168
-6.80182	5.5653	3.23284
-3.48655	-1.76758	3.10342
6.27115	-4.26936	3.78111
-3.13687	1.34879	8.87632
3.90582	0.510815	-3.5822
3.59382	-0.894741	-5.00636
-3.9631	-1.52877	-2.38277
1.52261	2.34933	-3.22346
-4.15732	0.213317	5.30185
0.795272	0.219449	-0.224873
3.93851	3.59266	-1.79711
-2.71671	0.9217	3.81807
3.0482	1.83615	-0.136941
-1.90586	4.69896	0.136689
4.88758	-1.81156	-4.85326
3.21747	-3.32681	2.15314
5.97858	3.45117	8.93973
0.712579	-0.900473	-4.46555
-1.65828	0.900666	-0.841754
3.13923	-6.56902	-1.92701
-4.84032	3.38143	-1.08536
4.00455	-3.26776	-0.759486
1.00122	1.40056	2.92255
-2.63729	1.33536	-3.54361
3.66943	-2.1994	-2.60616
-2.75687	0.656637	-1.10123
-1.82273	-1.14259	-0.181088
-2.0862	4.00494	1.92335
0.968972	-1.44178	-1.98419
3.90113	-0.329919	-3.54376
4.98491	-1.87281	-4.22686
-6.16615	-3.1454	-2.78218
-3.94183	-1.737	2.41433
-3.05351	0.979145	4.02171
1.00458	0.0012509	0.736918
6.85656	2.32548	4.4359
1.81537	2.41215	-2.47945
5.73501	3.79801	-0.267649
2.21934	0.0266924	0.892707
1.31791	1.40369	1.36241
1.98914	2.51602	-1.261
2.40907	1.53321	1.7571
-3.03532	-2.30571	0.419151
7.05526	-1.01003	1.49985
3.46969	1.5137	-0.416281
2.96385	-2.26388	3.04993
3.43631	-0.0699627	-3.70119
0.858213	0.625945	-2.20944
-4.62647	1.3791	-7.79441
-3.80737	-1.63347	1.27801
-1.52459	1.21746	3.64162
1.07992	-1.58376	-1.70316
-2.88342	3.04362	-1.18707
3.30557	-2.79195	1.23109
-3.20065	-2.50301	2.74164
-1.70141	0.739158	8.23597
-3.65054	-2.80944	-2.92467
-3.12439	1.04166	-4.01288
-9.49349	2.43225	-0.463027
-7.04043	-0.503535	0.808586
-1.76861	-1.01825	0.895511
-4.53954	2.58004	3.63454
1.57126	-0.00402399	3.52948
-5.98196	0.885689	-2.42098
-4.86952	0.0534495	-5.55731
-1.65058	1.04591	-1.20407
1.13144	0.023106	-3.09461
-3.85565	0.194128	-3.93681
-5.77418	0.975425	2.37193
-3.70147	-2.38288	1.51433
0.867361	-0.204461	-5.20867
-5.05604	-0.88475	-0.25796
3.85539	-0.150227	1.51115
2.66784	3.12402	0.424908
-3.48907	-1.55756	-7.251
-3.12585	2.37177	0.492668
3.83715	-1.24991	-0.26174
1.78745	0.69557	1.41639
2.51465	-2.4748	-0.443552
-3.46436	-0.628344	1.12273
0.726112	-0.674068	-3.51498
-4.78722	1.70605	1.45039
-9.45419	-3.89511	-1.91264
6.34083	-1.1102	0.669528
-5.11924	-3.70497	1.35653
4.70796	0.235155	-3.96304
-2.43725	-0.0314588	2.15434
-1.24109	-0.211043	3.8658
0.959528	-3.58889	2.08385
-3.08074	-0.283928	-1.94202
-3.37981	1.28363	2.26799
-1.76244	0.344436	-0.533521
-4.07944	-0.696512	-0.418031
-3.55511	-2.45987	8.85843
2.83272	-0.359067	3.43136
4.40461	-0.578758	-2.16654
4.99216	-6.29968	0.410305
-3.26641	2.43912	2.08421
-5.85116	1.31991	3.9866
1.5862	-0.712048	0.601133
-5.43832	4.19348	2.83284
2.31937	-1.32744	0.827067
0.639207	-0.536729	8.34106
-2.01242	0.711972	-5.11502
5.40758	-1.13956	-2.48079
-3.05283	-0.149106	0.361346
-3.05916	-0.197756	5.73562
3.6298	-1.71178	-1.23512
5.5777	-4.119	2.4904
4.42891	2.40234	-0.435999
11.7518	-6.14934	2.08446
6.28185	4.09746	0.621628
4.11252	1.92494	2.54027
2.89295	0.876082	1.55957
6.20343	5.21081	-2.60397
2.64169	-1.17859	2.79911
1.64278	-0.475678	-0.969095
1.51442	2.20036	-0.476966
3.97728	0.0801569	-1.37629
-2.5866	-0.51102	-4.74654
-1.89075	-3.37263	2.96768
0.46338	-0.831198	0.905759
-1.70253	0.282641	-2.90528
-4.96327	0.369489	-1.64047
2.82469	1.61549	-0.498306
1.58637	-2.43372	-1.7976
0.0829148	-0.159677	-0.754624
2.03929	1.76065	-0.601789
3.2799	4.71234	-0.174443
-3.54816	3.71829	-4.18802
1.71764	0.486493	-0.631871
-3.18175	-1.91115	1.36559
2.15764	0.856342	1.95745
1.6541	0.631622	4.03803
3.41182	-1.07914	-4.4816
-1.75767	1.16703	-4.9884
4.52621	2.27232	1.3486
1.04731	0.635175	-1.55351
-2.33012	1.23733	-4.29225
-3.97396	1.17188	-4.27881
-1.83105	-1.00999	0.543759
5.64479	1.70191	-1.634
-0.98808	1.24457	0.465118
6.97471	-1.3388	0.237113
-4.85643	5.96365	-3.83348
-2.92087	0.961932	0.211703
-3.75712	6.42457	0.914132
-1.27497	-2.93262	-1.77801
2.30861	-3.16115	-0.888303
-0.734414	0.0791946	-0.926894
-2.46084	1.72031	-3.08551
3.32983	-2.32262	0.12101
-3.01444	-1.32025	2.66952
2.39291	-1.24402	-3.88462
5.28363	-1.07185	-1.47655
-1.89941	0.22887	1.65076
5.21045	-2.62146	-4.95394
-5.37032	1.69753	-1.43081
-2.61577	0.144787	2.41928
-5.46977	-4.326	4.6956
-2.32367	-1.13009	5.44627
7.7222	1.12674	-0.329379
-2.05104	-1.47996	-3.19021
-2.76654	-1.89287	-3.83134
5.15297	2.12853	-1.91626
-2.40139	-0.637261	0.763288
-2.79593	0.36775	-3.73244
5.46686	3.86344	4.14673
1.92786	-4.39013	-2.53981
-2.16743	0.512176	-2.70088
-2.56294	1.78357	3.19848
1.61664	0.332226	-1.43295
-1.54899	0.417703	-4.43757
-1.43638	0.898668	0.669141
2.48042	-0.363128	-2.37844
-3.16522	-2.6554e-05	-0.0438032
1.24699	0.516972	-0.0509046
2.52856	-4.15601	-2.09299
0.780642	1.83844	-10.8612
-6.11508	-1.3325	3.15164
-2.06431	-0.426698	-1.1835
-1.76544	-0.0799805	2.06332
6.92452	-2.24448	1.6457
3.25575	4.59746	2.58234
-0.976828	-0.962443	-3.08218
-8.13469	0.319475	1.73249
-3.35787	3.65483	-3.17748
1.41077	0.858	-2.58612
-2.17581	0.0296913	3.9499
2.47252	-2.71407	-5.26139
-3.87212	5.71618	-2.62688
-5.29738	0.61038	-1.77304
-2.53327	2.98293	1.25254
2.11958	0.536646	-2.24136
0.389032	-1.07253	-3.53962
9.83492	-2.16297	1.94309
1.49731	-1.80624	-4.01772
-3.13456	3.32243	0.169605
-6.47527	-2.38495	7.61032
3.71943	-2.34948	-5.41331
2.20507	3.62582	0.569743
0.921718	-0.032929	-1.1038
-1.96367	-0.644027	-3.68227
2.28054	-0.80189	-5.62945
-1.67441	-0.93355	1.7543
2.31637	0.78085	2.20796
-4.40104	2.45278	0.186148
-2.78952	-1.12801	-1.64024
-4.68064	-1.96673	-3.35856
-3.71321	0.341047	0.60405
4.32316	1.90064	-2.10262
2.45577	0.916183	-4.62569
1.68649	1.55202	1.60998
-3.67204	-1.39827	-2.45276
-1.7643	-1.39849	4.45632
1.0436	-2.81949	-1.52898
-2.73879	2.22413	2.08251
0.182235	0.445197	-7.60603
0.946451	-4.16797	-0.769272
4.90643	0.819992	0.242446
-2.37988	1.11678	3.52305
-2.90416	-1.59212	-5.00842
-2.85176	-3.19412	-1.92112
5.97281	-2.5758	-1.82593
1.62049	0.60622	-0.417512
5.62495	-1.52027	0.981208
-4.78129	-4.31111	-3.36115
6.48925	-1.22546	-4.5408
3.94785	2.0748	6.02614
-3.52027	-0.496629	-2.66944
2.53701	1.49534	1.09032
1.09438	-3.8748	1.98655
1.78546	3.65303	-0.471761
4.25719	0.316867	0.0758969
-0.891373	0.816606	-1.38633
2.25434	-1.18266	-2.27888
-2.58867	-1.60383	0.788956
1.03432	0.113518	4.2538
1.91769	-0.207111	2.04729
1.18314	0.120477	-0.895548
-1.82365	-1.69278	-1.50302
8.00498	-0.304341	-0.474181
-2.46546	-3.16906	7.19576
3.64351	2.82684	-4.18487
-2.59224	-2.61829	0.942162
2.56725	0.119925	-2.72887
0.815813	0.333756	1.72235
-2.27624	-5.3615	-3.5873
-0.650938	0.103201	-4.08618
0.496153	0.928356	2.28136
3.63685	6.27868	8.14731
-1.3102	-0.752267	5.05467
1.85554	-1.43234	1.80876
-5.80144	1.77759	1.65564
1.63232	1.56094	-1.455
-3.50317	-1.26402	-0.181027
-3.50618	1.92841	-3.63702
-4.26856	2.1577	0.0230247
2.91786	-1.00512	1.56099
2.51511	1.03862	1.39758
-2.97003	0.142927	0.952438
5.98112	-0.305946	-3.04574
0.880438	-2.6946	5.82448
1.32983	1.87473	-4.87805
-5.24116	-0.383795	2.16773
-1.51452	0.505378	0.892179
-7.96322	4.28263	-2.94295
2.52694	-1.89031	0.155095
-4.84863	3.33847	1.83138
1.19932	0.398603	1.86841
-1.09935	1.79619	2.29659
-5.76027	-2.31327	0.39511
10.66	-3.70597	2.75401
-4.88943	-2.24087	-3.1559
4.56235	-0.556899	-0.0935063
9.34099	-6.08216	3.199
1.31941	0.633107	5.33195
-3.90792	-0.939457	-2.18962
1.07946	-0.122292	-1.31584
1.8992	-2.09356	-1.88317
1.3913	-0.246197	-0.330165
-1.00698	-0.19694	-3.86532
-5.36725	-3.62473	1.80502
2.90372	2.19793	-5.19058
-0.191239	0.0690392	2.7835
3.02121	1.52791	2.22026
0.714041	-0.166431	0.516654
3.56668	0.947228	0.674271
-1.92161	-1.08356	-0.393745
9.00824	1.84602	2.55872
7.82463	2.08982	-1.28805
-4.34392	7.27546	-1.51959
-6.66573	-4.30475	-0.98113
4.2157	0.240688	-0.186688
6.17579	4.03526	-1.39183
-9.69742	1.80678	8.02942
-4.78986	-0.901979	-0.611606
-4.10592	-1.19437	-0.922033
-4.38172	-1.72823	1.04376
-2.26337	0.781735	-1.77726
-3.53866	0.741013	3.18349
5.76701	-1.43854	8.92447
2.16965	0.990651	-1.22942
2.44475	0.847453	-3.5238
-1.25801	-0.484789	-2.46426
3.03697	0.249332	4.45525
4.69997	-1.11144	-1.46838
7.89514	3.35037	4.88932
-4.64721	4.40624	-1.18921
-4.71446	-1.87453	-0.421623
1.63352	1.1268	-4.0442
2.10156	-3.86627	5.53119
3.91168	5.17729	-2.82681
-3.57732	1.34262	1.37938
-4.94412	-1.68568	-2.10768
-4.94831	-0.414075	-9.64111
-3.69745	-3.28598	-1.29014
2.67388	2.13186	3.96036
1.4581	-0.27105	-5.08614
-3.31473	-0.679149	-1.64421
-2.64744	-0.241376	4.58833
-2.46397	0.794902	1.60638
-0.606422	0.188586	-2.92827
-0.352424	-0.370221	2.12855
4.91841	-3.365	0.165556
-3.0726	1.30746	5.10947
4.31184	-1.43945	-3.13704
-2.20308	0.712049	-2.30838
-5.49197	3.24906	-0.676318
-2.30428	-3.11947	-1.51895
-3.26519	1.51083	-0.392712
-3.42735	-0.382036	0.154113
-1.85726	0.176789	-0.557212
2.22914	1.42288	-0.162518
-1.35381	-0.281568	3.19217
-1.31297	1.84803	0.0967279
4.08112	-1.36657	1.84776
1.27849	-1.92451	-1.17343
-7.87649	-3.48101	-0.688774
5.08573	1.74659	0.339384
5.12873	-2.03699	-4.89461
2.40132	1.56676	0.380615
0.157869	0.316329	-3.33966
1.44795	0.139263	-3.38041
4.08548	0.0411593	-1.2365
-3.33497	-0.703503	-0.477952
3.34343	-2.06577	-3.1271
4.14113	0.960406	0.319053
-2.126	2.40448	1.47932
-1.88374	0.889949	3.41351
0.783725	2.50783	-0.0132009
-4.86042	-1.83856	0.263755
0.791938	-1.68634	2.50021
2.04021	1.62117	-5.90217
1.3607	0.0474602	-3.53297
2.70961	7.57583	-3.68991
1.43854	-1.01169	-2.9575
4.99221	3.63572	-3.20097
3.11269	0.944741	0.236801
-3.911	1.88313	-2.58822
1.39452	-0.0282743	-2.66556
6.1974	-1.36222	-3.10444
-0.438683	0.197078	-4.78413
-0.724159	1.36902	-6.76221
-2.36366	0.330612	-2.51999
-0.760661	-2.27564	2.16605
1.62737	-2.75839	2.06158
6.63725	3.59767	2.97893
2.97232	1.36575	3.9305
-5.49388	-3.69846	-1.93154
-2.24754	-2.65243	-1.84752
5.55293	-6.16412	1.46707
-5.2768	-0.628761	-0.106488
3.8902	-1.25774	-2.16043
0.975661	0.876711	-3.50675
10.4114	4.18265	-9.33735
2.61491	0.929325	2.87155
-2.67576	1.87249	6.06081
-5.50182	-3.93865	2.37723
0.296053	0.194695	5.69626
-2.74353	-2.79251	-2.1026
-7.54978	1.63697	2.77958
5.10451	6.238	0.239152
-0.531571	-0.0620878	5.04219
-1.53555	2.04942	0.921406
1.97854	1.17732	-2.32425
-2.50283	0.0844504	-3.21621
-3.53665	0.55371	1.8924
1.79504	-3.48076	2.56846
0.968465	-0.730221	-1.53171
1.1005	0.831533	-3.83505
4.57674	-1.83045	1.51085
-1.85847	-0.784723	-0.366721
3.05355	1.96719	-1.64953
-1.84681	4.06103	-2.93222
-2.35363	1.55768	0.289665
-0.974411	0.12178	2.51804
1.34646	0.716432	-3.33597
3.83306	-1.226	-3.77215
-2.52421	5.5762	-5.94504
-1.24775	3.70639	1.68459
3.18449	1.35996	-2.9558
-1.2269	-2.29618	-1.31649
-2.40156	-5.90989	1.42961
4.66973	1.52812	4.19871
-5.09244	2.24489	-4.67852
-3.35086	1.32857	-4.33396
2.45879	0.976044	-3.85825
-1.64739	1.07951	0.189947
3.40399	1.59758	2.38817
-2.38299	0.675889	0.379325
5.67444	-0.667684	1.11713
-3.60184	-0.0631292	0.208894
6.63235	5.04236	3.04574
-1.31871	1.25626	-1.64949
3.39606	-1.38854	0.353317
-3.69351	-2.26572	-0.0956427
6.9387	-2.33862	0.437018
-4.92587	0.166019	-2.71041
-2.02345	4.31548	-0.343641
-1.43966	1.31521	0.507606
-1.06512	-0.207032	-3.06929
-1.61089	2.01646	0.694296
-6.67566	5.43972	-0.149731
4.83351	2.61594	1.56849
2.6507	0.171052	-0.361553
4.10231	-5.08903	2.20075
2.49736	0.519483	-0.922746
1.83862	-6.11023	0.831395
-2.36472	-1.2875	-1.28293
3.04353	0.217709	0.968482
2.45185	1.59976	0.127524
-4.08329	2.63811	1.81544
1.14235	-2.40476	-3.18786
-2.37297	-2.51914	1.76991
-2.87655	-2.88767	1.65248
-3.9895	1.93214	-0.616399
6.06293	-1.73662	1.8195
3.39194	2.15563	1.70296
3.2783	-4.11897	0.576613
4.88393	-0.820129	-1.08852
-2.77477	-0.566256	1.56339
0.686591	-2.9485	-7.8402
-5.40957	-0.364024	-0.958313
3.57394	-1.62817	2.09884
7.84616	-4.24347	-5.2617
7.18729	3.2086	2.28481
-0.673411	-0.238273	3.49752
-2.22017	-3.31429	-3.38799
5.64227	3.26785	-5.65501
1.63401	-0.910086	4.18953
-4.48732	1.21251	-0.764905
-1.8955	0.870785	-0.43401
-4.08712	-0.842888	-1.88276
9.11124	0.468165	-4.34134
-3.2066	0.269758	-3.63559
-4.41789	-0.947723	-0.0308711
-4.49472	0.755085	-4.8371
2.52217	-2.52089	4.82518
-1.5597	-1.01344	-5.44266
-1.60169	-0.542484	1.2658
-2.12399	-3.02104	0.27018
1.85289	0.506294	-1.30327
-3.99021	2.83796	-5.35759
2.07618	-2.33765	-0.230398
5.70263	-1.10545	-0.260115
0.0986833	0.019555	-1.79862
-1.25942	2.25943	3.91686
1.08687	0.940532	-3.23797
2.95069	2.3547	1.04589
2.64793	-1.17571	-0.317733
-2.04528	-2.08176	-4.40722
-1.43714	0.0539085	-2.00727
-3.60178	0.823789	-2.81107
2.81548	-0.188091	4.3984
2.99181	-1.57654	3.61072
1.9327	1.9175	-8.9259
-2.021	-0.212317	0.479832
1.96417	-1.23298	0.901819
4.74121	-0.557083	-5.68827
2.59411	0.987534	-3.40579
2.21152	5.16784	3.77565
1.56497	0.270643	1.08928
-4.01781	-1.35047	0.464842
-1.28059	-2.74638	-4.17069
-2.23065	-2.84724	-0.369686
-3.85458	1.78973	-0.00859161
-1.13106	0.281321	0.165028
-3.88341	0.0140172	0.782126
-0.943272	-0.209359	0.893186
-1.01532	-0.974267	-2.63705
-0.958416	-3.06853	9.66274
-3.78401	1.67506	-0.80098
-4.35267	-1.52858	5.16125
-4.25789	4.56904	4.17308
-3.69301	0.607808	-2.25139
4.33958	1.27529	-1.97946
3.71883	0.693352	-3.40577
-3.37888	-0.836792	0.729545
6.20522	0.964764	-1.09541
0.750561	0.0529181	-0.949671
2.54809	0.461485	-4.05372
1.81984	0.31508	2.80921
-6.72043	-1.37718	-2.71786
2.45534	-0.53401	5.27059
2.28041	-2.51535	0.0903704
-1.99056	0.100413	1.46025
5.96599	-4.64691	-5.55106
1.93065	3.00304	-1.67286
-2.32457	-3.33102	-6.68474
3.28004	-1.94784	-1.14635
-2.06897	0.568351	1.44741
2.08213	-2.5033	-5.13575
-2.46214	4.41906	3.73806
-4.80337	0.598787	-2.58408
-1.96544	0.15641	4.017
-6.89865	-1.68678	-4.345
-2.19453	2.97518	2.56663
3.53517	-1.38057	-0.134955
-5.5122	1.44359	-5.44318
3.66129	-1.50582	2.79935
-7.58086	-6.47816	-2.72252
-1.82804	-1.25576	1.67009
-4.05489	-0.402865	2.59071
-3.87191	-3.85866	-0.357335
-4.43731	-0.786812	-0.993631
-3.33967	-2.68658	-6.37265
-2.54183	0.458027	1.19438
-2.85548	-0.386806	1.81139
-2.24706	0.689924	0.300346
-1.9741	-1.05062	1.8898
4.18511	-1.12126	-5.14358
-6.11439	-1.18815	-3.83558
-3.39919	7.04294	0.290114
-1.8065	-2.94028	0.679778
-4.96914	0.173746	-1.00828
1.54101	-0.311992	1.68607
1.78242	1.28477	3.25425
7.02647	-4.29651	-3.05305
