-1.94641	-6.71987	1.23251
5.32177	-7.52887	5.84926
-1.07233	-0.805923	13.2118
-7.55021	17.7141	3.24998
-11.4986	-3.87375	5.09896
-5.40106	-9.55916	-3.49634
12.1427	10.6522	10.428
-2.31526	-2.84239	-0.659475
-7.61029	-12.1857	4.37412
-3.08156	-2.39882	0.993853
-8.89761	1.97677	3.41902
5.05914	-11.3357	8.32158
14.6832	-7.11243	6.35461
4.58078	13.3081	1.65488
-2.35388	-6.1352	4.27989
8.27321	-5.49408	-0.118442
12.6812	-11.9633	-1.24658
3.66531	5.61446	-4.99006
-3.44271	8.6649	-0.27984
7.80584	7.04159	2.28189
-3.04836	4.76496	-3.76814
5.46178	-0.901782	-9.51406
8.28208	9.45303	0.1883
-11.4489	4.63683	-0.938133
-12.0621	-4.32181	-1.50068
9.81648	10.023	-5.83499
-6.32117	8.5877	-2.08457
-6.53909	-4.55827	1.96478
-4.55546	6.34686	7.03596
-6.30361	6.40259	2.19824
4.3076	-3.98705	-2.45879
2.84072	4.10403	-3.0182
4.76446	4.49577	4.38677
-7.74884	-6.24263	3.26492
7.84617	-3.9383	-4.58074
5.54018	6.01884	1.4387
3.00474	2.52666	5.34072
-1.70557	-3.60148	6.34428
7.11526	-7.00808	14.761
4.93156	4.10285	3.00533
-4.74677	1.61579	-0.727499
5.60415	2.91512	-3.66845
3.88982	-4.78217	-3.65361
-0.982481	3.87808	3.51648
1.96745	6.74184	1.07349
5.97222	4.66261	-3.19206
-2.45589	-6.96045	-1.31329
-4.35313	-4.2079	1.58733
5.05367	-6.31576	-0.365046
6.38914	-2.94919	-1.20424
-9.88475	7.30955	2.20238
-2.78495	10.6977	7.69972
-9.05084	8.39795	10.6091
-2.1282	7.88736	5.99303
3.53414	3.25913	-4.02046
-4.13735	-4.12402	-12.9786
6.89076	-6.85832	-4.24643
0.683738	3.6241	-6.36362
4.00184	2.02801	0.102727
7.63498	-6.34138	4.4748
-1.42374	1.42137	4.15489
-3.27323	-6.80299	-2.90166
8.26751	9.30516	-3.54809
4.80741	3.62845	-1.80516
-14.4151	-13.4839	3.45473
-5.29953	-5.45257	-7.71601
-6.53953	4.17041	3.98614
-8.00843	-9.00962	9.39229
-7.51642	7.78457	1.55316
-8.2124	13.1393	-11.7975
-6.06987	-7.31045	-2.65626
5.88869	4.47117	11.4833
-9.56033	-2.55169	-2.49857
-7.70977	-3.00693	3.58206
-4.72205	2.38067	-7.06626
9.72282	-5.91726	-7.43126
-7.21323	-3.46536	0.294101
3.39004	-7.54678	-0.223696
-4.93639	-4.38078	0.918532
-9.16319	4.24655	1.26887
4.23051	-4.27146	4.6931
-1.17939	9.08663	-8.33544
-3.28965	-1.79764	-5.54503
9.29755	-5.98844	3.92749
8.54245	-8.87379	-8.90833
-10.4352	-1.81417	6.51061
-0.940846	-0.645686	4.18093
-5.58391	5.05315	6.32106
-4.69762	3.39406	4.5755
2.0743	8.60982	0.411287
-2.97316	-3.26424	-4.68289
0.0604366	0.148571	-2.68926
-7.67443	9.22037	5.89257
-6.10182	4.96773	-1.69595
6.71848	-6.22216	8.69152
3.55562	-2.34603	15.9956
4.16593	4.68958	-4.36127
3.04996	4.80595	-3.8569
-10.3681	-11.5168	6.2251
-1.34479	8.68913	3.53227
11.6928	-10.1577	13.107
-4.62133	-6.68644	11.3377
-9.39048	-10.3262	5.22088
-4.17673	4.85844	-3.43328
8.12843	-7.47709	-1.8979
-4.26509	5.87372	-0.942928
7.79314	2.81525	7.15948
5.51612	2.27223	0.257293
5.85788	-16.4996	8.26874
7.78432	-3.47286	-1.5689
2.28103	1.85943	0.299793
6.06485	2.42119	-6.27888
-2.20636	-3.15017	4.97568
1.15525	3.55974	-20.6502
-4.23242	1.88122	-0.426788
3.37947	4.87616	3.14542
-2.40299	3.89161	12.1269
8.69519	8.20915	-14.0723
9.74005	13.628	7.34964
-7.25016	-7.62548	-2.41829
-6.42689	-7.31193	-8.16616
7.0779	-6.16997	2.25152
-6.41255	-2.76319	-6.02607
-5.50451	-4.91838	-1.76027
-8.47957	-10.5242	-3.91451
4.19001	-2.59586	-5.80109
-2.45416	6.03167	-5.71463
3.20054	-2.6408	1.41526
4.5371	3.20391	-4.59837
1.93552	5.369	-4.5745
-7.283	-0.988917	4.76031
3.32413	-4.38339	2.84311
-3.30138	-2.25662	1.68808
13.1948	-6.91031	-1.49172
-15.8947	4.57113	-4.53436
8.07467	-2.59342	-3.10122
-6.29978	-9.41389	6.21132
-4.63724	5.58469	4.58058
4.70178	8.37343	-7.65935
9.49028	6.68464	0.701275
5.40879	6.8862	-5.33178
5.52457	3.99594	8.08571
-1.74797	-1.36078	-5.28575
-3.40765	-4.65912	2.06431
-8.82439	-11.2192	-6.484
-6.52094	12.3384	-1.64301
6.82277	3.31063	-0.0286607
8.77803	5.31623	-1.04355
-7.27953	6.32136	-4.5654
-3.5018	-6.85241	-1.80347
-0.831867	-3.77786	-7.00779
8.63603	-10.1292	-0.652373
6.61534	-12.6012	-7.62976
-0.614944	-6.4867	-4.96693
-1.27853	3.55011	3.32706
7.32567	12.7552	-0.952637
-1.3656	-1.34081	6.3147
-6.46601	5.80327	6.936
1.64901	-5.43355	-4.85657
-2.55732	-3.90537	2.74514
-3.48784	2.18675	-5.05883
7.40518	2.14859	5.61942
-0.461829	-1.34278	-5.22605
-8.83382	14.0833	15.4874
-1.8493	3.23184	12.9828
5.5159	-5.62919	4.35664
8.04279	1.40413	2.10401
-2.0486	3.02999	-3.49672
-7.81063	-4.75793	11.6721
4.05097	-8.22041	1.95326
7.77529	-11.9056	2.05944
-1.48634	3.42747	4.91444
-3.95614	4.98812	1.12323
18.1428	14.5646	9.47879
-15.8456	10.2835	10.3524
-5.53496	-9.88508	-2.2539
5.22197	-4.03817	-6.46767
1.98067	-5.21602	-1.98284
4.72019	6.0177	5.46545
-0.282341	1.40031	5.69324
-2.117	4.63778	7.81054
-12.271	7.28065	-10.1585
-0.297114	0.452601	8.47527
-1.77173	1.16715	-7.09472
9.95448	-6.39347	7.12474
-8.25849	8.36692	5.8283
-1.34609	1.46775	-10.1298
-5.74974	-6.58179	-2.99991
-2.43294	3.32824	-2.64176
3.62994	9.70161	-3.59087
-9.2152	-5.13738	4.26837
-3.56084	-3.48479	-5.28561
-8.94937	-7.56169	-8.04517
2.2621	5.93186	-2.9848
3.46206	2.30076	-4.53672
-1.66484	4.6058	1.95122
11.8879	6.11421	2.78663
-7.9587	4.68866	12.791
4.62964	6.70379	16.7771
5.49943	-5.1959	-4.95064
8.16635	-8.63816	-13.0877
4.46952	-12.3503	1.06937
-3.77962	5.09942	-5.15114
10.7855	-2.33661	7.06546
2.49303	-3.72103	-8.54728
-3.63736	-1.35217	-9.03856
-5.26821	5.27354	-2.23044
-2.79982	-1.51018	-12.8699
-2.18981	8.6204	2.03743
7.45165	-6.47841	-2.51095
6.21101	-5.13013	0.851786
-5.4833	5.08082	-5.2159
7.67263	-10.2373	-0.907097
6.08191	2.46031	-6.417
1.4353	7.06278	12.6165
-4.40934	3.14487	-0.843459
-0.712137	-1.93059	-4.41792
-5.62489	7.64719	1.70901
-6.35662	-10.7114	-9.62323
-8.0821	7.29545	-0.433348
-11.8638	-3.86437	4.67799
-10.331	-8.73298	4.17544
-1.82682	2.91672	3.50342
1.57445	0.634756	4.38384
1.60181	-1.44382	-10.0429
-2.74247	-1.74685	-3.52763
1.58133	-4.34036	-6.11491
5.55945	-3.61693	5.08642
6.05891	8.31481	-4.44432
5.44282	8.91798	-1.49163
-2.6223	1.12422	4.69533
-6.10644	-4.28707	2.71536
-7.65657	-6.63419	-7.6852
0.605153	8.90306	-6.80522
-3.78601	7.59081	-2.98779
10.5507	-8.3398	-3.75787
8.54253	-7.35365	-0.180814
-10.6133	7.94293	14.6045
-5.09166	8.07919	3.22743
10.295	-8.23826	-3.57271
2.6213	-1.01335	-9.26711
2.89455	-2.8924	2.40142
7.66864	4.39042	7.09055
1.97156	4.98962	2.6645
4.50469	4.65688	5.21528
-2.84326	-2.85026	1.38867
4.55508	-4.64243	8.38875
-4.44842	6.26028	3.28593
3.44663	3.04061	4.99937
-5.04536	6.91412	9.73579
-3.61016	3.01236	2.29968
4.37876	-8.04718	6.22484
7.60377	-2.59758	-1.32085
-1.94093	-3.89769	-8.06766
2.30003	-3.79835	-2.96833
5.21914	4.98009	-0.636394
5.34929	-6.10241	-7.95918
3.90409	-5.89246	5.98542
6.85729	2.79754	12.443
-2.87395	-1.73392	12.964
-1.39641	-4.55066	-10.5026
10.0126	5.54688	3.40556
-4.22753	4.93634	-1.79632
1.50784	-2.28567	8.38361
2.80961	-4.08769	1.99971
7.19794	-1.03608	3.29608
-6.1616	2.81677	-0.405277
-11.2334	2.04497	-14.5006
6.64762	7.10216	-4.94792
-5.08828	-3.53786	0.62344
7.63076	5.77477	-5.64493
1.69042	-1.54525	13.5583
-10.3798	10.0008	-0.445245
7.81245	5.99271	0.236424
2.42266	-5.64505	0.00628162
11.922	7.11154	3.00721
10.0911	-5.8794	6.19701
9.84749	5.85417	0.249636
-5.49819	1.21837	-6.75688
0.820836	-2.22543	-4.59988
6.45327	-8.90819	11.3053
6.17881	6.18171	-5.5652
2.085	-1.61469	8.80314
-3.76562	3.19166	0.250497
9.47956	-12.6037	-6.37165
7.57062	-3.91609	8.56104
10.5411	11.6082	-2.57479
5.33051	7.06172	-3.25897
5.16802	-2.94451	0.327348
-2.61183	14.4612	4.65424
-5.44594	5.36423	-9.65158
2.36113	-3.07439	0.769437
2.60015	9.1526	8.7012
4.11858	-3.24962	9.91192
-3.69786	-4.0881	-11.6614
4.59307	6.0986	10.9155
-3.04697	6.34867	12.3887
-5.47408	2.19161	3.84953
-4.82585	0.904721	-3.65612
-4.71364	7.60302	-0.777873
-2.24511	2.60398	-1.17911
3.64441	-2.09817	1.95148
12.0229	5.67218	-2.13392
7.85953	3.94718	2.73243
7.70998	-4.46345	-8.08651
-10.6247	-1.66652	5.46204
-3.64712	-2.38849	-6.86233
-8.14596	2.79114	0.815367
6.50835	-3.7548	4.73173
-4.25825	-1.18627	-7.48773
11.8414	3.87383	0.382404
2.19266	7.77882	-1.45153
1.57565	2.49561	-9.57738
-9.26325	3.89759	6.72538
3.89358	4.79842	0.559931
-4.83275	4.12539	2.26859
8.02681	-7.4013	4.27886
-7.90834	-3.93453	1.12366
-2.74589	-6.96502	6.94847
-9.30772	-3.84284	-4.28658
15.1827	-15.044	-0.656443
6.30595	-6.39982	1.04126
-3.15496	-2.49322	-12.964
4.07047	3.89858	4.89366
-9.44008	8.97284	13.985
-5.41942	-7.35753	4.67096
2.56619	-5.17561	7.47735
4.73033	-4.90298	-0.964287
4.73529	-7.03916	-5.11257
5.22016	4.10546	1.78693
3.02076	2.05381	18.1611
5.06531	-7.65745	2.58193
9.41732	-9.46599	-3.24659
2.50155	2.92873	3.3217
10.6937	4.45563	-0.962655
-2.06036	2.85035	-13.2181
2.78323	1.27621	3.45295
11.7241	-7.0245	7.35478
-4.20032	-5.80873	-8.94744
9.5752	10.9307	-4.69512
11.7275	6.17251	-15.6195
3.98274	5.56389	0.861828
-5.1685	-7.37214	-4.59535
1.2888	1.61345	4.6395
8.02135	4.04645	-4.88067
3.72005	8.82789	5.75626
-1.85746	2.54745	9.83243
5.10371	-4.76501	4.39444
-11.0333	-5.58284	-3.26287
12.917	-3.46949	1.3572
-6.10502	-2.63622	-1.97077
1.26328	-2.71124	18.114
-2.49009	-3.03275	-4.88152
3.27503	4.46757	-1.53092
-7.22406	-4.674	-5.48755
-5.15406	2.8762	1.78527
-3.58616	-6.55307	-2.9501
0.866447	-2.62	-4.55657
0.896262	-0.84839	-6.40017
-7.75811	2.63828	-1.12406
7.07361	4.63386	9.344
-13.2866	7.48193	-7.57216
6.89078	-5.80064	1.0484
3.89822	3.63221	2.68946
-7.45336	7.43176	-0.019231
9.89796	-3.94923	2.50321
1.80315	-2.8708	-7.38915
6.55885	5.92454	4.04024
-9.04005	4.17143	-7.12645
-4.29142	4.07736	5.89806
9.01886	-6.46324	-3.06176
-3.18095	-0.872163	-15.7722
4.47921	10.6562	5.43918
4.06846	5.64817	10.812
-6.60865	-9.43622	-2.57823
11.0131	2.54634	-0.246178
8.19011	8.72355	13.043
2.32766	1.9293	-6.41329
-2.75932	-1.00176	-12.2452
4.41342	-4.4029	-6.66919
9.47654	7.65339	-2.10205
3.47073	4.73425	7.38158
-6.58556	-7.29073	-0.404704
3.84633	-5.0065	4.99783
20.3736	-8.46186	6.50746
-4.30959	-2.09532	-3.39981
-5.37516	3.29342	1.89748
2.34321	-5.85555	4.11271
-2.57965	-2.87741	5.67419
2.7881	-2.74282	0.44717
-7.11554	8.2794	-2.08468
-2.52542	-1.60192	6.7594
-1.55236	-3.37184	-2.82941
-13.2492	16.502	1.26081
-2.12996	-1.74992	1.54499
-2.24326	-5.75192	-2.90673
-5.06296	1.53746	4.16833
-6.49659	3.91506	-4.2955
1.45919	-3.98197	-5.23282
7.7805	-11.9123	7.99646
-7.14504	5.00348	10.364
-7.19841	7.5814	5.96065
1.82817	7.72818	6.13483
-2.78467	2.07533	23.16
-5.77787	8.10044	-4.608
1.05984	-3.84332	-6.53792
6.9622	3.77452	-4.54292
3.25425	2.60507	9.0768
7.12099	-6.2795	4.98371
4.7365	2.3028	4.16832
3.01357	2.73048	-10.6978
-8.19963	-3.12571	-2.19492
1.82738	0.245564	7.95423
5.8961	-2.03552	3.51744
-9.61276	3.1795	-4.18174
-5.53267	-4.06497	-9.59607
-8.75139	11.3825	-4.99818
7.37262	3.67232	1.39591
6.89409	-4.93572	6.23666
4.54197	1.6616	-2.24376
-5.39755	-6.19858	-6.97678
-7.10778	-0.832904	15.535
2.6758	-5.14425	1.54301
-8.35278	6.43978	-0.494404
5.46508	-12.1214	-7.43145
5.13345	7.66698	11.1049
-1.6727	-2.46405	-7.43982
1.67558	-2.81974	-6.28741
1.3924	-3.18488	-5.54238
-4.37144	4.62446	-3.59976
-2.31308	3.03226	-7.22067
-5.97108	-8.80146	-4.43921
3.19154	-2.617	3.64763
7.42248	-4.9808	1.67807
-3.8844	6.0749	-9.9665
5.03393	-4.79927	-0.996036
2.40284	-3.55568	-6.20956
2.78485	4.17882	6.0104
7.35969	9.67446	0.0477533
-5.71985	7.57218	-1.80267
4.6009	-3.27104	-2.4445
-8.27966	-2.73571	4.95314
-2.15065	-5.89397	-1.43211
-7.96981	5.80305	8.42249
-4.71171	-7.29898	6.36906
3.2064	2.34327	1.40784
1.23353	-2.91716	-8.37942
1.83278	-3.85472	8.29198
9.73578	-6.59558	-6.68806
-7.65849	-7.34918	6.60536
-4.24766	-6.12562	-2.9421
4.7096	-6.04453	-4.47893
9.7812	-8.44254	3.63416
-4.27979	2.61038	-10.3104
3.49033	-4.49102	6.06293
7.40917	6.85788	4.97146
-8.31374	-6.52165	9.26869
-5.98601	-6.15894	4.57165
-3.40458	-4.44957	-8.628
11.1249	-9.88434	2.3248
6.00846	-1.07465	-9.73497
-8.56838	-7.86284	11.3815
8.0907	-1.97676	6.16573
-4.10612	-7.87832	0.232796
4.42018	-3.40361	6.67969
-4.78045	10.2609	1.81145
9.51544	5.27443	1.14796
4.0313	-6.03032	5.88005
2.72338	2.23356	2.42012
4.20181	-13.15	-10.8172
9.61893	2.98532	-7.29462
-5.30257	-4.03855	0.479906
1.27622	-3.32809	1.49452
10.5855	8.88941	-1.41074
16.5609	5.83866	3.35811
1.11072	-9.07912	5.07219
1.63716	-0.87998	6.13299
1.56938	1.57453	-2.88838
-5.81159	-6.83292	4.73605
6.28672	-8.04179	-3.33123
6.23378	-6.6192	-10.9156
-3.39586	-0.575732	-8.70674
-6.98484	-6.54289	-15.2341
2.98899	7.54529	-3.17046
3.19878	1.36462	6.22955
-5.01984	-2.30368	17.99
-4.26066	8.86924	-5.023
13.2148	6.5897	-10.1844
8.40319	11.2067	-5.41038
3.20059	-5.42088	0.580542
3.37981	1.80998	-12.3303
-7.92975	-5.58532	1.6107
6.44663	-6.44335	8.75919
4.21877	5.98338	-10.0548
-3.77321	-4.47592	2.87542
1.89956	-0.771775	-6.15861
3.39257	-6.47822	-1.73272
-1.88032	5.54019	12.3564
4.4146	6.65357	-4.83755
7.90483	5.08258	1.26006
-7.18188	-2.53969	-4.81405
-5.04961	3.67792	3.21415
-6.65422	-8.11402	4.32909
8.46257	6.05016	-3.95522
4.27558	8.68211	-7.31004
6.02164	3.4562	-2.05609
14.2618	-8.18383	10.7484
-13.7424	-11.3583	4.01372
-6.5248	-2.55547	-5.1996
-7.56959	-9.31078	7.05984
6.63994	4.90269	7.10278
-5.41169	-8.23407	6.77283
-6.13733	-3.42074	-15.1694
-5.30263	-4.79123	0.838124
-4.25627	9.14074	0.72707
7.96583	5.40452	1.8889
-2.64892	5.19922	7.38476
3.98969	-4.13527	-0.0155311
6.00069	7.38983	-1.46808
-1.87923	-7.36325	1.80706
-2.64738	2.16581	-6.79355
-8.36934	7.61867	-2.41712
-3.86395	-3.28479	16.2769
3.71768	-3.35383	-4.69413
-5.97959	-4.67214	9.0526
10.4897	6.74042	3.778
6.53444	5.08792	5.69828
2.81177	-4.75013	-5.93192
3.4041	-11.6016	4.78615
-4.02431	-2.37829	-5.97946
-11.6951	-1.18444	5.66046
4.15793	-3.57745	-0.704582
1.05094	1.12026	11.8896
1.51121	-3.03814	-3.60022
-7.55475	-5.91031	-4.15448
-5.43688	7.28967	-12.4543
-4.6059	6.72983	3.41632
1.83829	4.14222	-7.42516
-8.1772	-8.83802	-0.781924
11.8771	-2.99156	-0.902071
0.561244	-0.41066	14.1566
4.43963	-5.87319	10.9443
1.50082	2.3712	9.32914
8.57348	4.42448	-2.69188
3.48382	2.60299	-4.5886
-1.86047	-5.03382	4.67475
4.91688	4.72118	8.41893
2.74259	-8.7409	-3.10541
4.80465	-8.8462	3.52972
-4.4897	6.95043	-6.65896
-6.01661	16.7158	-11.1301
-9.55305	-14.6511	-4.50725
-4.19413	-4.31196	-11.2845
2.87272	6.68414	2.14248
-2.30454	-3.24389	-0.312528
5.91447	18.5062	-3.71581
-8.24875	5.87629	1.87046
1.81784	2.09789	12.6555
5.93333	11.337	-7.60472
11.7814	-3.6094	-3.95964
5.08481	3.47996	-7.86507
-5.09795	3.32143	-2.7353
6.13479	9.25047	8.16659
11.5521	-12.6882	-1.57226
13.8749	-12.8301	4.39478
-4.28413	-8.10498	-0.974726
-8.82625	7.36064	-8.23403
4.70243	-9.20488	-3.91922
13.3216	11.8938	-5.73278
14.6218	-14.5226	-0.615389
-1.6665	2.74466	-7.70708
5.72318	7.71152	2.96501
6.65596	11.3573	6.4759
7.55009	-6.3537	3.47452
-4.50832	-4.54054	-2.85413
6.25743	3.24419	0.308643
5.76833	-3.39771	-1.5627
4.01531	-14.3729	-3.0171
2.98973	2.88596	0.0895458
3.88346	12.1222	-0.619662
5.49218	3.57291	-3.28236
-0.549209	-1.38644	-22.0977
6.63648	3.65937	-10.5386
3.68451	2.62386	6.61753
1.60574	-1.65939	5.51983
14.3423	-4.20941	1.76792
6.62449	-6.91765	5.27789
-12.1425	-6.12176	-5.12188
-2.0995	6.29903	-1.92466
3.63295	1.50977	-0.506193
-5.34979	8.56442	-8.86806
0.768492	-0.408584	-8.09293
5.4983	3.96536	-6.29204
-0.868652	2.58562	9.92887
5.13014	-5.44614	3.80279
-7.71901	-5.46392	2.95046
-7.46245	6.99631	2.84629
4.33919	13.6309	10.779
10.0059	10.3518	-6.23159
5.48004	-5.15589	9.57394
6.78351	-7.06485	5.36038
-14.1121	-3.77544	-0.0947037
-2.1792	-5.82736	-8.26459
-10.8894	9.19753	-1.67517
3.12608	-6.76379	10.6069
5.18725	2.64308	-0.937436
13.4772	-4.1373	3.4068
1.06818	-5.43754	7.18731
-2.50036	-1.3801	7.39639
-3.09249	4.14416	4.74066
10.4106	4.4069	7.68423
4.64978	5.4129	8.6132
11.829	10.781	6.15323
5.37277	6.52196	-0.525918
-5.3453	2.7371	-3.64094
2.28057	3.90344	2.04983
3.9063	6.84297	-12.4686
3.881	3.5423	0.14058
4.58425	-4.66033	2.10241
-9.56989	8.33004	3.47807
-5.18417	3.38136	-13.4016
-6.80324	12.2843	8.84988
-3.64737	8.71482	5.85971
-1.83116	1.04459	-6.7713
1.80572	1.76334	-3.28861
-4.82287	2.34533	5.1266
2.96709	-8.15838	-4.68431
4.6443	1.6394	-9.98283
-5.38967	-6.53756	-0.91142
-6.56955	-6.3786	5.56015
7.20659	-1.24397	-7.28164
2.36019	-1.95202	2.46747
1.43233	-1.09007	9.55222
-1.89326	3.76923	-2.3317
-2.92834	-3.19757	5.91306
-4.23205	6.81989	-8.30938
-4.64949	-3.30256	-13.6528
1.43303	1.36914	7.46037
1.28968	-4.22249	-9.78569
-0.710144	0.767318	-3.11169
7.43744	-11.0526	5.48977
7.42618	2.38222	-2.25879
2.97802	-6.05832	-9.52542
-7.63546	-7.56728	3.02711
1.45155	-3.90198	3.15087
8.05189	-4.34856	-7.09259
4.77638	4.59643	8.43609
-2.91415	-5.68146	5.21617
2.10005	-3.14225	-17.5674
-5.5668	-2.17529	-2.44151
4.06558	-8.29129	-0.806114
6.56048	-8.444	-5.10244
-4.17864	7.41211	2.02786
-4.87363	4.82517	-0.565703
-10.7139	6.43577	8.35103
6.54731	-2.56858	8.79649
2.08862	1.92302	-3.99149
-9.60999	7.82716	0.473246
-3.89677	-10.2411	8.46622
10.0551	2.83449	4.98496
13.5488	7.83838	0.376809
7.36013	4.35894	5.36847
-4.60917	5.80047	3.56066
0.944314	-9.67717	-5.43689
10.1636	5.63142	3.77441
-6.47082	11.9159	-7.94455
1.03202	2.52883	-6.24781
-4.59547	-6.38344	0.223301
-2.07863	-0.4548	6.10177
4.9524	9.9373	-2.10368
-4.96601	6.7331	1.31066
4.42076	7.95797	-2.2443
12.7306	-6.0105	-9.00555
2.37105	-5.02688	8.34085
4.0098	-8.37713	11.2595
-5.34905	5.24283	-0.998017
-13.1309	-8.7052	-1.46492
3.01084	2.58712	0.689494
-7.00497	4.68924	0.5793
-3.93753	3.6694	-7.30067
5.70622	-6.82341	-4.45527
8.53495	-10.8161	-3.71162
5.21907	-4.74438	0.217099
-3.6575	-1.35535	2.35808
10.2922	-5.1723	-1.64538
3.88381	5.84054	11.8024
-2.52099	-3.67002	-5.93918
7.03199	-10.2897	-2.0834
-6.21013	-9.6203	-4.40281
-5.82719	3.44334	-13.8566
5.12707	-2.21642	-8.34507
6.36154	-9.43025	6.58668
-5.87417	8.03213	7.79153
6.19258	-9.9382	-4.8945
-4.32978	-6.02286	2.13449
-4.62558	-5.69823	3.93096
6.91933	-10.9442	5.14215
3.13537	-7.06172	-18.3418
-6.5285	-7.23005	-10.6979
-6.96094	-1.50775	6.4389
3.57433	-6.30442	-12.7622
6.58446	-8.34839	-5.72688
2.51452	-2.02436	8.61775
1.33965	0.744883	7.92757
-5.33812	-15.1993	-3.7103
-6.43523	-3.91382	2.29527
-0.763298	1.02187	3.51117
2.03907	1.85963	-11.109
3.63167	-5.48366	-3.12242
2.86499	2.90624	-4.56821
3.90565	3.45324	4.62497
4.23132	6.90444	4.59473
5.4129	7.43106	-5.05911
7.06169	2.97719	-6.18175
2.87748	3.37142	-1.85632
2.30004	2.52218	-6.86286
8.44563	5.60769	7.10564
9.00991	9.5545	3.2323
3.58802	7.54884	-4.09596
-10.2274	7.03148	0.92804
-0.91537	-3.57091	4.12443
6.07189	2.92829	8.14099
1.35667	2.14779	-14.9249
4.89843	2.98697	-3.78836
-3.94144	2.9415	4.48683
-15.8112	-7.37563	-7.69786
5.82628	0.769084	9.88451
-12.362	-9.31838	0.679954
-2.57966	-2.15359	-2.00151
3.12607	2.59399	-10.1709
-2.28415	5.6987	-3.86146
-6.04371	5.00756	-14.7025
-3.58408	5.68611	-12.9021
-5.81557	3.28469	5.12247
-4.92575	4.68577	-9.01561
-2.21294	-4.28546	6.58626
1.17256	-5.54089	3.94152
-9.95331	-7.82017	-16.3922
7.95218	3.89023	2.81874
8.43088	7.18114	6.30187
-2.76645	1.96084	4.22143
8.94551	5.18182	5.01291
4.65803	-5.13208	5.82496
3.09789	-4.39255	4.33832
6.47499	-7.67917	0.580439
5.24176	-7.80264	3.0701
4.90649	8.51624	-11.1903
-4.22955	-3.95133	0.347594
8.90196	6.42353	-0.271931
-2.46787	3.21887	-2.64227
10.2903	-3.96546	0.885504
4.04026	8.68802	-5.12034
12.6644	-5.89408	-1.87557
-8.5844	-9.46165	3.4501
0.949068	2.25531	-6.50955
-0.998242	2.4595	0.215165
-3.22684	-1.46674	-3.01143
11.6223	14.0024	-6.85575
2.569	-3.93287	-7.31896
5.47041	-8.63349	8.11176
8.0294	7.14562	1.26724
-3.9848	-6.67198	-6.13376
-5.60397	1.78476	-0.669822
11.2786	-5.23307	-5.67462
-7.55043	-5.7034	4.03862
3.68517	6.55301	-9.72271
-5.72392	-8.39153	3.35351
-8.17726	-3.89692	-6.57745
12.833	-4.27288	-10.5328
-5.66431	8.57146	-6.97345
-9.90358	8.26332	2.57821
-5.94052	-2.43146	-4.44178
5.7913	2.36405	3.18443
-8.77523	-7.71224	-7.81611
-3.1466	-6.95956	3.49483
-9.51899	-4.17663	6.14898
-8.36962	-4.34346	-2.41288
0.987359	-0.616495	-6.24684
-2.5362	-1.48982	8.80065
2.91641	-12.2132	4.2203
6.63363	-8.83909	12.625
5.94326	11.2471	-1.86821
-3.11185	5.71315	2.76953
1.50172	2.1969	0.0206768
-8.20211	-3.08637	7.51107
-8.55978	-14.8056	5.26309
-14.3423	-13.3928	4.25871
6.01786	4.91182	12.4432
-6.53833	-15.2984	6.14719
-12.4164	5.63322	4.01186
-7.01033	8.53868	-3.13249
-8.40226	4.83936	-10.6906
-9.56259	-3.09364	-10.8194
8.48526	11.0234	2.95588
-3.5731	-10.1005	13.6174
6.79996	-5.68606	5.02803
5.68297	8.11024	7.62251
11.8593	-4.70694	-6.94233
10.7616	-5.84594	-3.29492
6.03532	10.5635	10.3769
2.79248	-5.40694	-1.35619
-10.3631	-5.00222	0.350735
8.57366	-1.68753	-1.1236
-3.11503	3.7652	8.66084
-8.62514	-5.10364	10.889
9.49271	-9.58059	8.51827
1.53813	-6.90417	-1.46207
8.35999	5.87863	0.190529
10.7277	4.91825	13.5531
-2.93678	-6.22534	-1.81783
-6.80519	8.32677	-2.62872
5.56704	-4.88365	1.96711
-4.62378	4.72824	-17.1402
-9.91443	5.87004	1.24944
3.49209	-1.68735	9.67197
3.6054	3.15524	7.10641
-2.48324	3.614	-0.528901
4.97722	-4.6642	-4.47031
4.21525	-3.68939	0.203036
-12.4537	-12.3701	-3.09977
-3.35818	6.4564	-0.908509
-8.14086	8.93873	-3.42023
5.24981	-6.30157	-4.24782
-10.1729	3.63975	1.02038
10.274	6.90853	1.36583
6.09866	15.3606	10.0023
4.2839	-9.85209	-5.59977
2.85813	1.98508	-7.27533
4.76817	5.38144	-10.11
7.63505	-7.84235	4.78781
-5.20971	-7.1772	-3.9283
-3.55724	-3.16244	8.37365
6.90483	-9.46581	-6.29016
2.5036	4.64398	-0.0551858
-7.02449	10.4315	5.9863
-5.64794	2.96799	2.97773
-0.294112	1.55772	-11.3397
10.9067	-5.19904	-0.666856
-6.48741	2.72698	-12.3553
-2.60952	-6.40542	0.993805
-7.70631	5.12207	-3.91591
7.81712	-7.912	2.4803
-4.92537	5.97489	-5.82809
-4.10601	5.60266	5.02711
-1.77661	2.18777	8.16467
-3.06505	2.9609	-6.32263
3.49673	4.27323	4.36081
11.3527	9.04303	6.05302
-1.8784	1.95998	5.85887
2.9451	-8.6991	-8.75502
-16.9928	-9.00323	-5.28482
-8.64021	7.66529	-6.00795
-3.52667	-2.7074	-6.49831
-7.55485	-4.26005	-2.42881
-14.5772	-9.8199	4.25247
-5.54373	2.88198	-0.710204
-5.93065	1.62153	-1.58242
5.37718	9.61101	0.186043
11.0129	6.52254	2.78314
8.27578	8.56256	-2.07268
6.80369	-13.7057	-3.74686
-2.25407	5.92341	-6.69488
1.4096	1.38448	-10.1327
4.27133	-5.00476	9.12137
2.82355	-12.109	-2.74277
7.53555	-8.86084	10.6288
1.77758	-6.16064	-8.83001
-4.85797	-4.69991	10.6654
2.07244	2.34224	7.76082
-6.5953	-1.6636	-0.860128
5.93648	3.34746	-8.04761
10.7118	-6.32529	4.81262
15.7398	5.47263	-3.43563
11.4244	8.80141	3.34145
6.3212	1.61122	-7.05364
-0.745043	-0.502344	2.25043
1.34087	-5.61733	-2.03134
-5.5653	-4.24938	-5.22092
1.79664	-1.10327	0.93546
8.20798	-6.91357	5.82864
2.92161	-8.82972	-6.31516
11.5581	-9.07125	-5.32174
-3.49328	-4.60897	2.03103
-5.64052	-3.26619	4.60112
-6.01324	7.07091	-0.494186
-6.18024	-16.1844	-11.9565
-5.64795	-2.58115	-3.60761
6.17275	9.82044	2.98595
-4.57362	6.72454	0.658263
-8.65895	7.47197	2.37806
-4.30979	6.51066	1.96935
9.44764	4.83143	-15.4079
-4.33614	2.50505	1.69148
9.60831	5.68448	-6.33549
-4.04791	6.60804	-5.67151
3.49885	-3.66056	-7.05563
-2.81717	8.57663	10.604
-12.9124	3.55168	1.66128
-9.25963	-11.2384	5.66462
-4.37462	-12.0505	4.84274
-8.78082	0.484578	-12.8869
-7.19879	-4.61539	-0.927924
7.77647	7.76266	6.4166
4.03308	4.04573	-2.60831
12.7512	-5.41316	-6.23549
-6.5637	-7.22609	-4.03286
-5.60875	2.5713	3.96822
3.61199	-5.84244	14.3242
-7.25097	5.88073	5.91283
5.41034	3.69058	-2.49742
-1.85178	-5.07251	1.71523
1.90864	0.436196	5.8502
-4.26735	4.13763	2.78549
3.76372	4.27048	1.53419
3.63761	5.11422	-1.5956
-3.32748	-6.24863	-0.704101
-6.37028	1.33018	-0.770145
-2.53988	-9.0569	8.4503
9.70971	-5.93971	2.50828
-8.45329	-9.60766	-8.829
-11.5256	-7.22587	-3.00418
3.08975	2.05567	-9.73071
5.60391	-3.68051	-1.07154
-2.71581	-3.93185	-4.48092
6.23782	8.53279	0.660458
3.23211	5.44902	3.43043
10.4799	-15.1725	-1.06931
-11.1274	-2.54977	6.89786
5.34576	1.48207	13.6318
4.24135	5.92441	-5.47035
-12.7212	7.71261	0.609855
-6.09872	-7.42536	-8.97758
-3.55758	-2.22257	3.7181
-4.60483	-4.64871	-0.107719
-7.96007	-2.76303	-9.80008
-2.9493	2.6287	7.27521
5.38192	-8.11616	0.83123
11.8093	-3.762	-4.60001
-4.17436	-5.39495	-2.47597
-7.1977	-6.25691	-1.37826
-3.83781	2.29668	7.22112
-5.45884	-4.59462	14.9097
-9.76064	15.6059	-3.48104
-8.09588	4.18648	-1.78066
-2.79463	2.21893	5.33319
-12.4585	-4.27066	0.681899
-8.29441	3.54	0.346971
-3.32836	8.92165	-8.71793
-5.56487	10.2271	-5.50127
0.616879	-0.748394	-3.4006
4.29545	-4.93416	-4.23218
5.04795	4.09166	-0.486215
7.3248	7.20791	1.59533
1.873	10.1724	3.89393
5.82802	5.09752	5.4033
2.96508	-4.29009	0.358124
-1.30564	-3.27779	5.39056
-7.50974	3.55872	-2.39716
4.75049	6.88662	2.33805
4.61295	4.77688	-13.475
6.26415	-6.39106	7.21574
13.3491	9.63476	0.723112
-8.02379	-9.53191	-2.4542
5.17255	-6.42255	-6.84028
-4.67775	-6.86997	8.64231
3.27325	0.610692	9.36692
3.21325	7.52466	-10.0199
5.29068	-6.96513	5.20401
2.3825	-6.86638	1.43598
-4.20216	-8.87344	-0.79916
3.97982	-2.34367	7.21333
-5.42767	-4.27613	4.66325
4.8028	10.8252	-3.48518
7.49096	13.0365	-1.30342
4.0794	6.19001	-2.2445
3.14929	-11.1228	-7.15788
7.90416	-11.2171	3.99768
-5.41346	-7.11688	20.4909
2.59725	-3.44895	12.8727
6.2033	-5.21424	-3.90998
-4.17858	-14.0925	12.2736
2.34518	5.63365	1.52457
3.48626	1.52959	5.07649
7.00489	-0.613139	-8.84341
4.00758	-7.2868	1.74601
-5.30726	6.1078	8.29353
-1.45637	4.18003	3.93517
3.33921	-1.89083	-3.22984
-6.40011	-4.99922	1.95386
-3.41647	-4.09314	-4.92629
6.22921	-5.25022	5.40639
7.19821	-7.95954	0.745018
-3.5728	-2.9132	1.90138
-5.25353	-1.45041	-4.98076
-13.6738	-5.96302	-5.47455
-3.70038	-4.19427	-8.93373
-3.43855	-1.57596	-0.529641
-1.83908	1.84271	6.20863
9.31215	2.88434	-6.96584
4.10033	-8.66475	-4.60652
3.29122	-4.81601	-1.44016
4.76894	2.93062	4.07614
-1.85443	2.85246	7.24937
0.887142	1.79984	-4.43183
-9.48484	-8.76499	-7.74755
2.99017	-2.65986	6.331
3.00947	-2.25703	0.964809
1.78675	-1.95148	-5.63283
9.99925	-6.68806	-2.75026
6.25339	-2.7675	4.37067
2.16267	-1.92603	-4.91811
6.88309	20.321	8.592
1.58071	1.45191	-8.10401
3.34429	-3.53444	3.28133
-4.28047	-7.22454	-6.74564
-4.06957	-7.35388	3.85455
-5.41187	-5.47423	5.98464
-2.88061	2.77617	4.91599
-2.44889	-4.29992	-4.41572
6.93308	-9.22718	2.20192
5.47581	-3.4313	4.65775
6.97743	-5.05724	-8.31561
-7.64468	3.20339	-5.75226
-3.7009	-16.2466	-3.51397
-8.79075	-7.28515	0.497973
1.09233	0.444688	4.14321
1.13084	-6.30465	9.05642
-2.49377	-5.55426	0.923388
-10.2574	-12.209	4.8195
-10.1002	-12.0626	8.81612
2.82124	-1.9345	-10.3575
14.3025	7.06936	2.64817
-10.9498	4.72142	4.26776
-3.66619	7.12181	0.774062
4.93974	1.46073	-0.45759
-10.7812	-5.84171	0.668302
-12.8421	-7.40147	-0.166784
-10.2655	-7.97791	-2.67222
-5.93877	-7.09823	-2.56151
3.68435	4.63964	2.47858
-6.11295	-4.31124	-7.9956
-2.6732	-3.96986	9.65099
-2.66905	2.14192	2.53721
-2.92486	-5.03264	0.315376
-7.15486	3.89582	-12.8367
-9.01927	-3.44321	-0.251008
-2.23627	3.22063	-6.22913
7.91201	-8.12877	-5.99179
-6.69329	-8.25462	5.07632
2.11957	-4.12139	-5.48068
13.3439	-7.16423	6.74673
-2.59492	-3.39921	9.49879
2.11085	3.664	-13.3934
7.80034	-7.31937	-1.06531
4.86259	7.5201	-3.82713
-6.51752	-7.56483	-2.24554
-9.9472	-5.72718	-6.52883
-5.20007	-4.74999	10.3601
-9.42226	-5.76099	-1.90899
-1.74524	-8.66867	-10.0859
4.02303	-5.45213	0.6495
-5.92311	-6.83874	1.86257
1.62784	-2.45252	10.0572
7.51398	-7.78404	-3.16644
-5.6279	-7.16303	0.0171556
8.12455	7.93051	4.33747
2.19378	9.62297	-1.86059
-2.83567	4.06894	-0.673952
5.06097	6.25733	-5.81368
-2.37132	4.56213	-5.42778
6.20873	-7.67163	-0.672657
-5.02103	-4.80094	-5.93156
-8.45837	-7.99476	1.89262
-0.999837	3.58565	-7.08464
-7.21389	-10.2342	1.85635
-5.87159	-6.01164	-5.87756
0.261054	0.330427	6.3641
8.27475	-5.91	6.58529
2.66668	-1.57119	12.7243
11.5915	-8.49268	8.25104
8.46815	-6.00335	-3.98137
4.04672	-3.36319	-5.05553
-6.20592	1.40537	4.73317
-5.60049	3.15593	-0.637336
-4.35652	-17.9394	-8.71846
-4.22413	6.11465	-4.88652
3.24243	12.3662	2.27791
7.64004	-4.15586	-0.042271
8.1038	7.69324	-3.0432
4.32148	9.16651	-11.454
-1.81476	1.62358	3.11082
7.46861	-3.89499	-6.33934
3.36651	-4.62795	2.95973
1.26845	2.90758	-7.66179
-2.47619	1.7753	8.73805
-5.17651	-4.61476	5.07987
-8.76444	-6.30985	-0.9665
3.41608	-8.84414	8.74182
-2.75706	-1.65538	2.22101
-7.29448	1.71853	-4.68028
-4.31552	-11.2568	12.9662
5.32906	7.01619	-9.92337
4.53493	10.2958	13.1147
-1.76495	1.27549	-5.98456
1.77689	-5.62449	-4.33282
2.56767	-4.47897	5.94728
-9.49011	2.37113	3.04567
3.68609	12.1926	-4.49348
3.44693	2.13224	0.123526
-3.45466	3.61784	-5.40772
5.56237	4.75513	-1.32775
4.95148	-10.5542	-1.93055
-10.3798	-7.74884	-4.47072
6.53269	-5.22515	-0.150624
1.85353	-8.3644	-7.28646
4.62884	-2.10525	-2.20013
-5.4542	-2.9154	3.48536
1.87714	-5.82841	-0.795181
5.68244	-6.2859	-8.48762
-1.95716	-2.63956	-4.02444
-1.39639	-0.562293	-4.95866
2.70027	-5.76544	0.751236
4.40807	-6.12138	-9.66765
4.80778	6.6761	-7.64817
-9.69152	13.5867	1.84779
-4.57582	5.15772	-3.69537
6.11253	8.64916	1.26469
-6.70677	-6.4673	3.07713
-1.6643	-2.54069	12.0867
-5.12662	-4.18989	-3.47111
9.8643	-10.9736	1.92489
3.72632	-4.59211	3.56682
1.83959	3.34487	-4.28562
-0.210553	-0.0834252	5.25708
5.95288	8.86987	0.900293
5.75144	4.02476	-0.281689
-3.50555	5.14958	4.29787
4.85789	4.3392	2.47934
-4.3154	2.62191	6.77952
-4.18219	4.45256	9.65996
-6.21987	3.05613	-13.1471
-8.66151	4.54725	2.11032
-8.51058	-7.17583	2.44218
-8.03339	3.64178	8.95587
9.42198	-8.04609	4.20173
-6.13715	-10.2226	-0.395216
3.77637	2.26863	6.18666
-3.07561	6.0579	4.22586
-7.84502	-2.84472	-4.35093
-3.23566	-2.84195	-0.793141
-4.70383	2.30052	0.272041
-3.72594	-5.48319	-6.39869
2.66487	-4.33965	-6.87788
3.41499	-3.36202	-8.69564
5.1726	4.3061	-2.84284
-5.84337	-2.08769	5.95192
-5.68131	-4.82549	2.16949
-4.9535	16.1561	-1.72644
-6.73633	10.2725	0.238367
-7.20463	5.97173	-10.5113
6.97343	6.73628	4.18116
-12.9685	11.5475	6.70846
-7.21861	-8.66968	-6.19131
-1.28591	-1.8203	5.28446
-7.18108	3.3088	7.59579
5.19681	-5.524	2.62335
-4.80393	2.88308	-2.94842
-3.90714	6.76121	1.85346
-4.47789	5.59921	-8.99869
-3.40545	1.90293	-6.49975
2.18602	-7.19145	2.43023
7.66889	-1.71294	-3.01737
6.15345	-4.21547	2.01444
8.86166	8.25705	2.36093
-8.86974	2.53962	-7.34197
-3.0087	-1.97343	13.3996
5.99932	7.01027	-9.14125
-5.64483	-2.90859	-7.48747
1.82594	5.39879	-7.06197
5.3443	-10.3234	7.93322
1.31921	0.862784	2.89543
-9.21875	5.3799	-7.44614
-9.23295	14.4917	4.92794
-10.8868	-0.986662	2.04498
-7.39142	9.82882	-3.09998
-1.72398	6.56332	-8.33641
17.7156	-11.7392	15.0854
-4.8124	-2.13427	-4.57123
-3.50284	6.18339	8.92294
-2.83342	-2.07302	4.48274
-2.01965	-4.58489	5.0928
8.31345	-8.10165	-2.55481
-8.26754	7.07598	-4.25546
4.13416	7.11839	3.08829
-1.14134	1.06374	7.59729
-6.06491	-4.3354	0.485416
4.41769	2.9556	-6.30438
0.871201	3.50919	-3.59564
7.76128	1.28615	8.44733
6.01641	-10.8071	3.46879
-2.12161	8.32705	3.81021
0.982432	-0.967909	-12.8139
-7.71171	5.52217	4.55728
-6.38995	5.91052	5.02551
-4.2036	-5.25451	7.5757
-2.84103	5.95927	-2.87478
6.76637	3.88008	7.72609
3.89413	4.19632	18.5537
-11.1555	4.02399	-0.875699
8.59667	-4.1125	9.03874
7.2914	7.1987	2.65661
-5.38993	5.5988	-5.43728
-12.1297	-14.3896	-10.1208
4.99015	-4.71327	-2.87673
-5.54474	-7.491	6.0991
-1.53418	-2.31441	2.42232
-0.989552	-4.51076	3.19164
-2.62099	3.86361	-6.94963
-8.69942	5.11802	6.53021
-1.37752	1.86473	11.3727
-3.0781	-4.89327	0.282156
-8.92325	-2.97752	-3.61135
1.24966	-3.39735	9.25286
-9.63344	8.48866	10.8355
-8.38783	7.53834	-1.7503
6.21911	-6.32355	-9.47846
-2.30501	-5.8864	-4.467
3.56729	-2.01797	-9.77288
-1.39626	13.3797	13.057
1.41742	-3.16683	-6.677
2.13653	-5.65111	6.89174
-4.77303	-6.31111	4.60978
5.46412	2.19964	-7.42735
-0.405603	0.821497	7.38793
-5.31692	4.51791	5.44654
4.08022	6.88141	0.0290032
-5.96779	4.55005	-2.93931
-6.2223	11.0772	8.2616
-11.6659	11.8537	4.26134
1.15491	1.55534	6.97484
-2.886	-4.17882	8.20453
4.81546	-9.76003	2.81565
6.78581	-5.70862	2.03912
-10.1233	4.62524	-1.10702
3.32404	10.5805	-0.867359
3.53658	-13.0965	2.19241
-3.74893	5.02241	15.5993
-6.84194	-4.99567	9.62858
1.0404	-2.44909	-2.35434
9.90565	-7.42067	-4.55925
6.77411	-3.87609	6.25507
4.53815	-3.89321	1.25248
-1.34997	-3.43612	6.53605
-8.73992	-12.1142	-1.61954
-7.88059	-6.38026	0.748656
-6.82648	4.1554	4.66321
-7.53389	-3.558	-12.9728
2.69923	4.42146	-3.81494
-5.27151	-4.09065	-5.60313
-4.40198	-10.4063	-2.68857
11.9486	-5.95563	-1.4005
3.2043	3.40985	-4.41506
-2.65656	2.80655	3.76541
-10.5425	6.32285	0.293778
-7.94134	6.98208	3.87813
-5.71565	-2.79775	1.34265
-9.45926	11.1246	-8.52886
9.91833	4.23736	-8.64305
4.2437	-6.48135	7.92472
-3.18198	-5.1845	4.41871
-5.32169	-9.67729	1.18552
9.46176	5.34447	-0.453361
-5.26356	-8.53153	5.54492
3.5562	5.64803	2.08351
7.21579	-7.77363	2.52636
10.9626	-7.23317	-2.8556
-5.69063	8.10347	-3.55691
-9.97505	13.4804	6.73188
-2.40598	-4.28189	4.3439
4.71762	3.94132	4.87074
9.42736	3.18492	-11.7369
4.25835	-4.97848	3.24105
-2.98739	-0.826494	-8.22357
3.23966	-2.48645	6.85424
5.48433	3.08512	-0.395494
-2.66508	-2.65324	6.15889
-1.63278	-3.28977	-5.60233
0.598188	2.71803	11.8553
5.46745	9.62208	10.4976
17.9606	-15.7982	8.8939
-5.64381	0.305453	10.4531
-1.89611	2.61775	7.0317
-9.26523	-7.61416	-11.5697
-4.08899	-5.69209	0.144192
5.93206	-1.96136	-4.35887
-4.54171	-3.95963	3.9746
2.25353	-4.26406	9.87373
4.1484	-1.98346	-9.60856
-3.17206	-9.8058	5.09361
-1.46361	1.13623	-9.71049
6.69846	-8.93676	7.83567
3.19255	-2.27207	-4.02159
-8.15305	3.36253	-1.72334
-8.48159	5.70091	-9.13947
4.78562	-7.97367	-3.34336
-5.73684	8.17119	-8.15211
4.38056	11.9793	-1.43513
-4.49354	6.10101	-9.48595
-5.9044	-4.59886	-6.12405
3.74221	-3.03069	-3.20784
3.82233	1.98954	5.45002
10.0134	18.2637	4.04654
4.55305	-5.51062	7.05564
6.8449	6.36839	-5.08683
5.29998	-11.9716	0.554835
-3.21209	3.18609	-0.43219
-9.78136	2.89889	4.61459
-7.57903	6.08631	-1.40457
-4.79922	9.92724	-5.18578
5.85206	11.3148	-6.9283
-12.9688	-5.39445	-8.32221
9.04387	5.30566	5.54025
5.03836	6.41039	-1.02851
-2.25899	-1.13607	7.70723
2.14951	3.01546	-13.5186
-10.6002	6.68133	3.04144
1.49474	-2.27552	-4.7171
10.1353	-14.5719	-5.9467
3.06012	-3.73091	5.57691
-0.662302	0.471428	-6.28184
-7.66578	-9.77459	10.3281
5.15227	-5.20139	2.0847
-6.7851	3.18104	-12.5108
-4.85936	4.48236	-9.84721
3.16946	-3.14648	-2.26712
6.76196	4.66154	2.78271
5.7297	-3.9639	6.82239
7.69609	1.1182	-5.63512
-2.62692	-4.44186	4.11469
-1.01887	-2.24923	5.47067
3.84661	-3.51017	-15.0069
-7.80183	4.28851	5.8101
5.47588	-5.59828	-5.27838
11.118	4.70409	4.62477
-10.609	5.15493	-0.753807
-8.67254	-15.2482	-3.89373
-4.97575	2.94742	1.78575
-7.8174	9.92167	-10.1575
-1.72479	1.35634	14.3798
-6.07695	-5.92949	3.51178
-4.3311	-3.19373	0.0658058
1.66156	3.47085	-10.3074
3.1418	6.07627	-9.35176
-0.928408	4.82458	13.3527
-6.42067	1.96002	7.97544
-5.74744	7.80625	-9.33522
16.4245	17.1353	1.40905
6.66689	-8.29417	-0.639271
2.76559	-7.35542	-14.0753
3.91794	-7.5142	4.09897
-2.24029	3.53941	3.03806
5.93958	-5.43341	1.15113
4.4375	-5.7559	6.53649
-9.0837	14.5717	1.79083
-6.67202	-3.54382	4.5932
-1.30915	9.84055	3.83211
-2.51832	4.45779	5.54564
-0.264636	-0.446682	4.88394
4.16794	-2.1323	8.83406
5.37421	-1.90952	0.317569
-3.60801	7.36377	-1.64086
3.19993	-5.65038	-4.45486
-1.61939	7.10945	-10.7259
-9.78685	-3.78948	-3.52798
1.70373	5.76522	-8.42156
9.66525	-3.11568	7.60809
-3.13442	-1.83793	-9.42432
5.14658	-1.38787	-1.11291
-7.41419	-11.9638	7.65646
3.38346	-3.72139	-2.71092
4.80243	2.14589	9.98385
-3.73113	5.13007	-7.78745
-1.94604	-3.2293	-4.12229
2.50233	-6.09302	-8.57588
10.4498	-7.54728	-0.681271
-2.96913	-5.57198	-9.11558
-10.0826	-15.2404	3.95419
-2.08295	-2.20234	-7.8308
9.7252	13.7193	6.53612
3.84054	-3.73004	3.09992
-3.62354	-3.62744	-5.83388
5.19892	-7.076	0.804366
3.97083	-3.43247	-4.86618
2.98571	2.25792	-6.64643
-2.42087	-1.74852	6.93958
6.87872	16.4888	-2.37392
3.20966	3.109	2.79043
12.582	-10.0675	-0.566706
3.99795	-3.51585	1.66068
-1.40829	2.50004	11.1027
-5.22934	-5.05378	7.64706
-1.12525	-1.74465	-0.748458
9.11359	9.71356	-4.60712
-5.31066	8.63945	-0.883254
-3.08465	-4.7686	-1.47605
-8.4862	-5.21902	-0.931862
3.47509	-3.18706	6.36208
-4.35592	2.7273	-0.705678
2.68618	-3.71803	-4.45527
-1.86091	-1.09543	-4.71662
1.33216	-1.55097	-3.91342
-1.0012	3.76735	-5.6504
12.9956	-11.4215	-5.58993
-5.076	5.47436	-5.37621
-3.4968	-4.8825	5.12649
6.62496	0.898598	-3.44067
-3.51269	-6.69043	-7.91704
2.75416	0.710424	8.85566
-5.86251	-4.87727	-2.02618
5.52601	-6.78431	1.47266
6.54626	-3.7503	-3.00103
-0.660167	0.783199	-6.01469
4.72671	-5.21319	-7.09571
-0.977415	-1.89569	5.17423
7.59344	-4.48757	-4.2757
4.12637	3.18925	-0.550104
12.1048	-9.27209	6.01851
6.45293	0.489933	-19.1353
5.49092	7.78438	-10.76
7.68393	6.46345	-3.28415
8.20374	-3.68625	-0.355553
-9.90132	3.52401	-9.79324
-9.39699	-2.4323	0.76391
8.54586	2.83949	4.04332
3.30401	3.9555	-3.07375
8.28211	-12.0087	-1.38875
5.06413	-7.8561	3.52654
-3.72794	-4.9973	7.47705
-3.34649	3.88048	-1.62872
-4.94499	-10.6119	11.332
-8.71052	-5.92794	3.89276
8.00624	6.25021	5.97332
-7.49997	-3.45902	-6.81358
4.29632	-7.27743	0.549534
-7.37975	-6.17648	3.86588
-6.27363	-7.50894	-0.532696
-2.28826	-8.04994	4.30395
-7.573	2.54065	-1.34349
13.1184	5.71465	7.17885
6.46423	-1.98522	1.1205
10.1518	-11.2979	-1.60766
-3.78796	5.88465	-9.77214
-7.52398	6.65443	6.83997
1.61697	5.4074	-2.19375
-9.77285	2.67555	-6.87989
6.19386	8.63162	-7.64344
-5.63059	-4.72215	-12.2029
-14.4927	-11.1381	10.0685
-3.11901	1.20401	1.52449
-2.7697	-2.74941	-7.65965
-3.1853	-6.77941	0.628099
-6.98069	4.40062	10.9762
-4.03815	6.84236	0.807388
-6.2748	15.447	-4.10798
-0.63354	-3.65979	-3.40777
-5.69659	-12.4541	4.50323
-6.83519	-5.06898	8.51019
-3.85334	-3.68711	10.3952
6.95349	2.18201	-4.11106
-2.63792	3.23338	7.20329
3.30016	3.48098	-0.163607
3.18057	-1.8017	-4.14368
10.5038	10.8656	6.80403
3.53074	-1.81317	2.10173
1.53785	-3.01985	-9.1523
4.73967	7.07334	2.78671
10.0431	-2.46656	-0.392967
-7.05153	3.21083	-0.396991
7.8508	3.69857	6.57331
2.79796	-5.57504	-0.87376
9.61168	-13.0065	-2.43596
3.72069	3.7485	-6.28465
4.36513	6.69094	5.01047
4.06501	0.913492	7.75268
-9.42327	8.51986	-2.19228
-4.47936	5.99571	-12.8521
6.75843	6.92759	-6.74865
8.81075	-11.7311	-8.31793
6.78915	-4.36713	6.06444
-3.80398	-5.13671	-0.983165
9.57667	-4.8114	7.62591
-2.73216	2.30831	-8.66931
-4.97276	11.1609	-5.60669
2.26967	6.22436	-6.66618
-0.734507	2.17944	-2.21174
-11.8953	-7.8527	-13.988
2.99685	-1.10145	7.64778
9.10191	-5.13966	9.2493
-6.32573	8.48791	2.25664
5.01029	-13.5988	-13.6872
9.76598	-6.31505	-6.74304
-4.64621	5.05042	-4.97583
3.66962	3.56508	0.118812
-4.6553	-7.81471	-2.7491
4.86275	12.9947	3.73558
10.5523	-6.84736	5.69382
-3.21225	2.48362	-2.46346
-3.23752	-3.89862	-8.28624
6.91734	5.36083	0.222689
8.02202	-8.95889	1.07464
4.98358	-7.73433	-6.19693
-8.56438	3.88607	-4.30324
-8.17494	1.94349	3.11047
-0.560623	3.02995	5.71658
-11.8036	-6.79174	4.35417
6.85551	9.56917	-10.7704
9.7151	12.2744	15.6945
13.3853	4.71778	-8.62276
8.76271	1.16447	9.89222
7.30335	-12.5902	-9.24258
7.45401	7.44435	-4.45533
8.41251	-5.23599	-2.71012
-3.99106	7.84532	6.45276
-4.53247	5.1067	-10.6958
-0.804266	0.676326	2.37903
6.58286	-8.27343	-0.584695
8.43272	1.99708	-2.6214
4.43227	4.75117	-0.730247
-6.83662	-11.1246	3.94495
3.25387	10.522	-6.04079
-9.88405	7.26281	-2.47375
-7.89831	-11.7383	-1.77384
6.41258	-4.22094	-1.27357
7.21138	3.75954	14.4586
4.53061	3.71027	7.02902
-6.79399	-7.24025	7.33576
9.8443	1.99396	-4.73007
4.18721	-9.82984	8.38495
-4.24961	8.31119	-5.70634
-8.65722	-8.96951	-16.9486
6.52977	11.5517	4.61968
5.65635	5.08494	-3.37649
-2.38771	-2.37977	-4.40681
11.8656	-9.59699	2.39574
4.92946	-6.14983	-7.97792
2.29885	-4.2746	1.29727
4.11818	5.03824	8.25695
-2.85204	4.25842	-4.52886
8.00297	2.31783	-9.43894
7.05362	-11.2834	-6.83521
-4.99542	-8.24635	9.29695
-4.06211	6.85496	2.21225
-3.88922	8.23639	-3.75964
-3.0187	2.6643	-0.529372
1.22696	2.16237	10.5826
-2.64505	3.29374	4.91967
7.49166	3.98612	1.85148
-7.04147	3.30217	0.616614
-2.87025	4.31896	-12.663
9.88296	3.9725	2.59712
0.476891	-2.62604	2.98017
4.21497	5.47159	0.635303
4.08307	-0.558931	-6.09436
5.26595	6.13681	-3.90203
-6.81698	1.30454	-13.156
-11.3198	6.47992	-2.94817
3.22229	2.26047	4.41014
-6.25181	-8.67512	-15.0142
7.44941	12.6648	-3.35739
-2.88723	1.37683	-15.0261
8.11125	7.1578	-2.23562
8.54452	8.42139	-2.17269
9.96857	-12.6362	-8.12752
-2.32946	-4.02941	5.88684
-3.09925	-3.55011	-2.97595
1.08076	-1.05503	6.23547
-6.73644	3.26655	-1.71926
-1.71439	6.40059	0.509199
4.23657	3.01282	-9.89669
1.95298	-2.33665	5.40625
6.7013	6.92392	1.70777
4.01129	4.64328	-2.79686
-1.57175	2.47884	7.49142
3.08161	-7.18902	-0.0645593
6.89757	-6.6818	-6.74843
0.86854	-6.1084	-3.60621
6.45573	5.3918	-0.651351
5.44057	-12.8129	-7.41486
-5.47763	8.64286	-10.5583
-6.93882	-5.0298	0.609511
-1.33429	-0.658241	-0.988506
2.7853	1.87865	1.9524
-9.39631	-6.85594	-0.671046
7.73518	6.65167	-8.91219
7.99729	8.36695	-10.0884
2.3123	9.37494	1.72114
-3.7828	8.36746	2.13776
-3.47207	4.05474	12.6179
3.30423	-2.4893	5.54525
-2.1391	3.63664	-6.70077
-7.89327	3.50882	1.59243
-5.05303	-3.0722	-1.46328
-1.43145	-3.8126	18.5162
-1.93294	3.32549	5.07115
5.74645	5.76792	6.04337
5.1011	3.08512	8.18183
5.04717	9.09148	-0.50045
-10.6858	5.34517	4.32507
3.82525	2.45986	3.56564
-0.521452	-0.638958	5.28809
4.79484	3.4781	4.57149
-6.4777	2.33038	-4.59216
2.82124	-6.15302	4.00314
7.12711	4.93686	1.69854
-8.61011	5.50885	-3.7987
-11.7845	-7.55572	-2.44514
4.01018	-10.9461	-0.916639
-4.10323	-1.27814	3.03572
5.20196	-1.21325	-8.92333
9.3906	-8.63548	-4.00226
-4.79127	-9.48621	0.0460948
-1.01537	-9.12789	6.30717
-7.00278	-5.12676	-0.617246
-2.94003	-3.28957	-5.01591
5.89133	-6.96586	6.24985
-5.35031	-12.9333	-0.54824
-4.82445	7.22089	-6.03049
4.63027	-2.40378	8.16868
12.6104	-4.92743	-3.03427
-5.24321	5.65133	3.59047
-2.78794	4.68752	0.299355
4.24815	6.96602	-1.17839
-5.81401	-1.28572	2.93125
5.81336	8.81163	0.821711
-8.02164	-5.15053	2.23376
-12.6628	6.77203	1.09159
-2.27518	-5.54321	-16.1345
6.25278	6.48169	3.13405
1.15384	2.21284	-4.0516
-2.68563	-8.05781	0.0850806
-4.30209	-6.6468	-1.71458
-2.30252	-1.33897	3.12209
-5.99408	1.96873	-5.73796
9.30849	8.73193	-5.04548
5.67837	2.5457	4.33309
-9.67199	5.06204	1.14473
9.65792	8.41858	4.94716
-13.6841	-6.77337	-2.04111
5.45916	-4.34915	-4.29277
-2.704	4.27528	-1.66349
6.14803	-6.01064	9.56406
-4.06408	-3.95739	-16.586
-3.60476	-3.62325	-11.7394
-5.23443	-8.84436	10.7972
-4.26789	9.63649	9.57624
3.91681	-3.88586	9.75928
18.0319	-17.0595	1.27511
8.1732	2.08456	-5.50001
-3.14583	2.8854	12.8357
-8.57367	2.56706	-5.60502
-1.31854	5.29359	13.1574
5.12314	-2.91829	-5.089
-4.23561	6.72101	5.92144
-7.0913	4.06464	-1.07364
-5.78215	3.00861	-2.84518
-2.81864	-3.21952	2.11631
-5.02527	9.42985	2.69265
4.14103	5.12396	2.34527
3.53099	-5.77783	-11.9201
-6.51664	7.24857	2.00717
-7.57876	4.83256	0.923288
-4.90075	-3.19239	11.98
3.96258	-9.64498	1.44617
5.69246	3.43356	1.7743
10.7394	19.3906	-0.597574
10.2508	2.15165	-2.62888
4.50275	8.06302	5.00777
-4.87369	2.40995	-3.34525
-4.82392	-9.4627	-0.129312
-1.81488	-4.6906	3.0953
2.87622	2.39153	-4.23897
-11.035	7.85908	-3.35825
10.3999	-4.83688	7.56351
6.03484	5.85077	0.486254
4.07723	3.82001	11.4661
2.82655	-5.40026	0.418588
6.07168	-4.12755	-2.19144
13.1052	8.55974	-3.43088
3.37642	3.47832	0.768927
-9.22637	8.89678	0.380066
4.82007	6.11249	3.12537
5.23738	7.6505	0.895808
5.50844	-7.7396	-4.47299
5.38384	5.15258	-1.6282
3.26769	-4.7778	-0.222564
11.4899	7.86748	10.6975
1.26889	-2.78445	1.29404
-10.3323	-8.43523	2.49685
2.11964	1.04886	-3.52008
-3.75108	5.21164	-0.986808
-4.65337	4.64534	-8.26178
-2.34558	-3.51724	-2.19311
-3.60937	-3.38099	-5.41809
5.40965	12.188	2.22332
-8.05696	8.99392	1.7705
-2.18494	4.20254	-5.69594
-7.5043	8.73855	-0.0904279
19.1332	4.12255	-1.44996
5.35281	8.28463	-0.167668
-5.50966	-5.42694	-2.97515
-5.35745	-4.51574	-0.168688
6.21292	-7.93742	-5.75796
11.1568	-10.3836	-13.9755
0.80976	-5.67425	10.9605
1.47086	0.357913	-3.49778
8.08759	-9.66742	-0.702107
2.75849	-3.40364	0.105332
1.70722	-1.50489	-11.3339
-4.6919	1.32676	-10.4627
-1.95718	3.43752	-12.1473
1.14594	1.58197	5.2988
4.71783	10.6274	10.5981
12.4077	9.07772	-9.17618
5.01856	6.12154	-0.794884
6.81833	6.09422	5.48492
-7.68156	-17.3924	-1.64499
9.00904	4.47341	-17.5661
-4.63199	14.1367	-7.43495
6.07658	-4.00101	-9.05725
-3.61586	1.23821	9.31499
4.04047	-4.88534	0.763857
3.72738	-7.56458	6.32299
1.97059	4.81562	-5.36931
4.35968	-4.76752	2.77185
7.06457	2.71422	3.52387
-1.09249	0.669995	-9.72218
-4.49249	4.21168	-1.74193
0.695943	6.20321	3.34259
-1.94609	3.15861	0.59263
-4.18348	-7.93468	-2.62793
4.60631	-8.16513	-7.55553
4.76528	-8.40577	5.58643
-5.46008	-2.58645	-7.15609
10.6076	-8.51313	-2.10983
-2.28944	-4.50075	4.92841
-3.342	-2.21771	-6.39183
-7.45977	-8.0097	-0.154793
-3.32536	-17.722	-2.05914
-6.24261	-9.80993	0.506024
-11.0475	11.9641	6.13098
-8.57637	2.4562	-9.02334
6.02897	3.38226	-5.72114
3.83712	5.53693	-2.03395
-8.99389	-5.44617	9.17118
4.3517	-2.00785	-2.15997
1.37025	-0.87567	-10.5675
-3.02423	-0.808341	0.0427455
-3.14865	3.83694	4.14242
-7.03683	-6.66274	11.1227
-18.0542	8.29708	1.0732
-8.44842	7.13293	3.90587
5.37256	-5.21197	-5.82568
2.12654	1.24691	4.96754
-5.1566	4.02441	-4.32187
-6.78854	5.03807	-0.128371
-11.4304	13.3516	-5.20297
4.76537	-11.1422	4.7811
-7.52403	6.69627	3.12546
-5.91965	-5.53989	3.02631
-3.51926	-8.1977	-15.3454
-6.9852	-9.72133	-5.11749
6.7394	8.50561	-1.67436
11.2861	7.86766	10.2269
9.421	5.87058	-9.02032
3.80727	-8.11528	-9.4046
3.58629	-2.55465	3.85265
-0.97504	3.24332	3.01036
-6.51425	6.55784	0.88173
9.63658	10.8381	7.17041
-3.72437	9.8104	4.73648
-1.65951	1.4266	9.52353
-3.30481	11.7532	0.913294
-7.943	-8.01792	1.18651
-0.825809	0.838565	-10.859
6.68698	-7.39716	-4.13471
9.07577	4.24585	-0.0309767
2.75787	3.30857	5.00211
6.90499	3.88301	-2.83626
3.25507	-6.0004	12.1747
-6.684	-5.18758	-1.53038
-7.58921	6.23515	2.15737
6.25403	-4.81295	-2.60332
-2.51204	-6.69687	-8.35452
-3.55585	2.34332	6.56424
-3.6838	2.11284	13.4024
-5.79226	6.29112	11.8563
3.59693	-5.96037	7.07673
-2.10984	-3.28586	-6.48331
-1.55823	4.67399	-5.41843
7.20074	4.14859	-0.365629
6.73261	3.99503	1.73086
4.34961	4.80154	-0.096553
-2.97046	1.86011	5.57703
2.90233	4.02929	6.22383
-8.71444	-10.7692	8.32583
1.37541	-3.18317	-7.28027
3.03107	9.28687	-1.44559
10.7593	8.8822	0.84112
-7.09046	-9.32105	2.42168
-1.85499	-2.96136	-3.38909
3.71039	-6.86355	4.39923
2.17603	-1.1141	2.75855
-2.65971	7.06587	-6.39273
4.09489	-2.86564	0.0937732
5.35971	2.61283	1.75295
2.35137	-1.79581	4.21297
4.32095	-5.23674	1.00583
2.49147	-2.91145	-11.3436
-13.403	5.26039	-6.60703
-8.47586	-4.6265	0.696036
6.13128	-7.0026	-1.86018
-2.6311	-1.86666	-2.8607
-6.57123	1.62196	5.70237
3.83905	-1.4659	-6.44423
10.9924	-7.26106	-3.17969
-7.18977	-2.11345	2.71818
1.60636	-1.61827	-9.12249
10.2042	-5.29827	-16.8149
-6.56195	14.2472	-3.28216
-3.13166	3.0248	-11.7302
-5.7229	5.22568	-1.82472
-6.29042	6.1637	-2.15775
-3.59312	2.24377	7.85587
4.66971	4.67589	6.05063
3.30163	-2.2353	2.31834
-4.6326	9.71106	-2.31569
0.647884	0.702538	-5.90097
3.19324	-3.95701	6.00169
-8.78614	-2.04244	2.69632
-5.04313	-3.48114	-3.65493
3.08183	-7.62493	9.08198
11.8391	8.55794	-1.13789
-5.74219	6.05232	-6.04211
3.27227	2.03088	7.1031
-7.76891	9.49116	5.02752
-5.0811	10.1164	-5.4421
-1.15102	6.07594	16.1789
8.49896	-11.3103	5.02455
5.73356	4.71792	-1.1317
8.37509	11.6093	0.896359
3.83771	-3.7672	-9.3745
2.58447	6.06326	4.04877
2.16511	1.23118	-4.82189
6.08533	1.08549	-8.48472
5.59634	5.32377	5.201
-2.41053	2.9819	-6.73797
8.46698	-4.62788	-0.67239
-11.8245	-4.10648	-7.92941
2.0336	-4.99413	6.2371
-1.39482	1.38467	1.99746
7.99444	-11.682	-1.1959
5.35501	-2.53927	2.58617
1.16243	-2.80661	-5.12844
6.00795	-5.38205	-3.85342
-5.33108	5.06631	5.43955
9.28089	10.763	-8.5577
-10.3976	9.22244	-1.22755
-6.57408	6.91243	9.82812
-3.48875	5.68598	-5.35534
-4.94951	-1.69572	-0.979013
11.6075	4.58041	0.671401
-2.34569	5.89792	-4.703
-0.748822	1.60888	7.89605
-7.36624	-7.48161	-10.7632
-7.24919	7.32876	1.21789
6.24022	4.50834	-8.49305
-0.83603	-6.24033	-8.86369
-4.01301	-2.80728	7.6135
-2.32325	-2.31075	7.35014
14.7629	-2.48498	-7.81846
11.1194	9.8762	8.6153
-5.92246	-3.6108	7.8814
-6.33205	5.11873	-17.6556
-17.052	-19.4656	9.53721
-2.50391	-2.49947	5.84479
8.42164	1.40656	1.3922
4.44311	-5.02019	2.93988
10.2561	7.6385	8.87683
-19.0462	14.2661	6.03679
-7.93046	4.9697	11.145
3.78216	-4.7679	5.69268
-3.40674	11.2634	5.54458
-7.81283	7.4316	-3.57607
-5.73217	3.88793	4.98974
