-2.02711	7.07454	-11.4682
3.93738	1.12079	-2.25296
2.48466	0.28956	3.55649
3.98302	3.19248	-5.22205
-6.06138	6.40306	-10.1977
-7.86494	-4.29497	4.73863
9.63965	-2.7197	3.17121
-9.88549	-0.423336	0.783401
-7.99185	-1.71062	-7.99563
8.94327	-1.28275	13.3736
-6.19892	-0.862159	-13.269
-7.00261	0.0823381	-0.870576
10.1091	0.341621	-9.50995
0.726676	-8.68002	7.29306
3.05804	-1.46941	-2.2931
6.69561	-0.701683	10.6017
-3.81973	-0.273661	-8.64685
4.71979	-1.94748	-6.17848
-8.88526	-2.39397	-1.22841
9.6446	-3.15552	15.2425
-2.52758	-4.89532	4.71228
5.68272	-0.262765	2.62806
9.00367	-4.38395	10.686
8.01454	-4.39543	0.888134
5.43071	1.23458	15.3014
3.70272	-0.359506	-2.67901
12.2652	-7.29105	7.50138
12.486	4.48331	10.9796
4.1776	-0.710073	-5.82486
10.9104	-1.6688	12.8227
0.522577	-7.06529	8.72505
-7.16381	-3.36181	-4.25612
-13.4534	-4.46454	-0.00538021
-5.13164	-1.58737	4.69417
4.17555	1.12751	-4.62115
-6.45685	0.409157	-3.50275
-3.62038	2.48116	-4.53798
8.80807	-2.66909	6.61212
8.57541	-1.19124	-0.0337095
0.194309	-8.49393	6.82755
-7.02018	-1.16478	-0.343043
-4.96544	-1.89834	1.06163
-12.7194	-3.60883	5.28965
8.19122	-3.16153	-9.59368
-3.24856	-1.10413	4.68808
-7.47942	5.68346	-4.31352
-6.14796	-2.70463	-4.08064
-16.2746	-2.03336	-1.64084
-10.2725	1.10804	-4.49882
0.193646	-4.63438	2.4708
7.22719	0.823048	8.74552
-2.57124	-0.660906	-14.1065
-7.06479	0.0654406	-2.09401
0.660617	4.59613	-1.08082
6.43439	-1.62636	1.97256
10.411	6.87973	-0.648095
1.0493	0.876401	-7.22358
12.6007	2.48461	6.04887
0.805427	4.00982	-4.97427
7.1111	-0.813762	-1.70905
9.60989	-1.42585	11.6439
-10.9609	1.19249	-12.0343
12.3088	-0.768489	13.2337
14.6881	-3.77694	-6.09109
7.60077	-2.71243	4.69404
-7.41893	5.77403	11.5226
-8.67718	-2.24412	9.72197
-6.85397	-2.84013	-3.41547
12.6423	-0.99265	20.4652
2.12486	-7.06752	-5.24307
8.10356	5.20453	-4.54039
2.21206	-1.13081	6.69077
5.92534	-5.51789	2.42286
0.580174	-8.14772	-9.85578
-8.7016	-2.98926	-8.09211
6.39662	3.17329	-10.2476
5.19002	1.59257	5.17586
-6.15304	2.84439	-4.03279
-4.83983	-0.541246	8.31382
5.1536	-4.60214	7.62925
-1.2909	-6.97603	6.8791
-8.00666	2.29983	-5.30815
4.89258	1.96316	-9.67059
-9.08963	-1.17755	4.37184
-7.3424	-5.88524	-2.1794
6.68402	-1.41157	-4.95851
-14.021	-6.37838	-4.51753
-10.9728	-4.22416	8.35575
1.49099	-0.085649	5.13721
5.99835	0.315287	3.77619
5.14478	0.810952	-2.29152
-10.1724	1.42316	4.96497
-6.23684	-0.81218	7.48909
5.97983	-1.91463	-5.5848
3.56185	-0.270305	1.97632
-2.07282	-0.397963	10.6619
9.34397	-0.775765	8.58174
18.4701	-8.57211	-8.10287
-1.9814	-0.802878	1.32099
-4.56418	0.526754	-0.73771
-10.6969	-8.62899	-0.705057
4.4001	-0.802373	4.93946
9.29412	1.89446	5.73386
2.20288	1.25172	5.27934
-0.46854	-7.22912	5.56044
-3.28206	0.16143	-0.557249
-6.92527	2.31093	9.29327
0.106895	6.47315	-1.62228
14.7198	-5.21294	-3.83679
6.66205	-0.709944	2.4294
11.0649	1.93821	1.91392
4.79248	0.844114	3.17992
-7.55235	0.424153	-1.68114
4.14477	-2.33769	8.34276
-4.2038	-2.47385	6.08772
5.41361	-1.27941	5.89397
-1.35936	7.96946	3.98184
8.31818	1.93121	-4.34489
7.50146	-3.01289	-3.18715
-1.52553	3.53388	-2.66182
-0.794474	7.34377	-7.82032
-6.47202	3.62937	10.4595
-10.4521	-0.171589	-13.193
-9.44104	-2.58621	-0.277172
14.9612	-4.57918	7.51377
2.24351	-0.795705	8.67552
6.7553	1.83744	-1.0366
14.2005	-3.39738	5.67269
9.32701	-1.33957	-2.18404
-5.37277	-0.482582	-2.2436
-2.06163	1.07511	3.62804
2.69808	-2.03072	5.37066
-7.68242	-0.0666696	9.81216
-0.713066	-13.4702	9.06729
6.92176	0.563798	-6.52619
-0.732043	-7.13917	-6.23325
-10.6422	3.34208	-11.2555
13.7998	-0.823236	-1.38928
11.7691	1.52409	7.04207
-6.67984	0.0217675	-4.93225
-10.0949	4.33436	-4.57993
-0.248174	4.60508	9.1852
-7.09464	2.38665	-1.74749
3.33633	-0.708878	7.27486
-9.32919	-2.53272	5.01381
-8.97451	-1.2998	-5.36037
-9.87399	8.31276	10.0746
-12.6815	2.67547	-0.501745
5.8655	-0.987066	5.67511
-5.99639	-0.947411	-3.95694
-6.66991	-2.8741	5.1469
4.84059	-0.732772	2.49079
-4.05796	-0.376312	-1.65917
6.89842	-1.83439	4.89727
11.1698	2.6225	3.54028
-5.77658	-5.81219	-4.94617
-7.67876	-1.59672	-7.33709
-7.21133	-1.25553	-4.8402
13.3744	-10.0967	11.2468
9.25623	-2.70651	3.3343
-10.1528	-0.163215	12.1396
-7.28527	3.03799	-16.5602
-11.4179	1.11922	-3.58882
5.76781	-0.748937	2.71145
3.78308	0.50608	-4.18947
1.71008	9.04455	9.71805
12.5261	6.00157	0.403743
3.19674	-0.163736	1.68184
8.73972	-1.42524	15.9679
6.32728	-5.6094	-3.83216
-6.62317	1.22011	-1.23153
-1.13082	-0.325239	-3.08249
5.84823	-1.33262	-8.37297
-7.87867	-2.65743	3.3197
-12.0846	-5.72329	-10.1724
10.8726	-4.60792	3.167
6.57851	2.60684	-5.00446
-11.2058	0.618502	-3.00088
-1.36948	1.13896	11.3685
-9.16631	2.98181	0.17625
8.18764	-1.5643	0.277605
1.42186	4.88637	-0.629337
9.35853	-6.23854	-7.40811
5.31045	-2.04635	5.29513
6.3307	-4.47876	-9.48737
0.712442	0.196585	6.6445
5.01295	1.71099	-4.21757
0.222401	6.40353	-1.17841
3.49717	-10.3186	-7.16158
4.14353	2.0167	4.07049
-0.433682	10.8282	-6.57228
9.89728	-3.33568	-0.319726
-6.45641	15.5635	-1.09449
8.02827	-1.85088	2.0652
14.0327	4.86045	-7.5249
3.69979	-6.46297	-3.88217
-7.94686	-4.50006	-0.210018
-10.086	-0.469527	7.76671
-2.83098	-0.952184	-7.271
-9.78862	-0.862749	-11.6857
0.39292	10.8641	0.172779
3.35916	0.129283	5.92512
-2.83182	-0.231671	-6.57904
-0.942155	-5.00401	4.41161
-3.92502	0.000680441	2.77491
5.13113	-0.644366	4.71182
2.90736	-0.25986	4.86847
10.1497	3.48912	6.2898
9.02744	0.530127	0.999471
14.5174	-7.37536	9.04665
1.16638	4.47127	-12.8098
-1.79574	10.0893	1.43125
5.73996	-17.6813	7.25696
10.4277	-0.123113	-2.95277
-7.04994	2.3293	-1.42308
12.8696	6.75491	6.69476
-11.9034	7.09509	10.1421
-7.91596	3.39263	-5.3501
-5.95257	-0.429949	-2.8735
0.204718	4.11004	-5.5605
-6.69037	-2.01909	-0.0149695
-4.43648	1.68778	1.74606
-11.0127	5.71789	-13.0005
6.85461	-3.79306	2.4122
-5.61111	-5.65046	3.51149
-0.00955805	-2.88	3.44512
17.6778	3.60987	-12.1873
-3.48211	-1.65936	9.25688
-7.89697	-2.06548	-11.0554
-13.7288	5.8156	2.51295
-7.61898	2.9309	11.1668
-7.50126	1.79066	2.18083
6.53081	-0.0712212	4.14291
0.70658	-6.78347	-0.248252
-1.81469	-7.22775	2.26171
3.65882	-0.941472	-2.24429
13.4716	-1.7344	-1.91679
4.54845	0.00321679	7.33742
-17.3092	-1.2313	-11.4594
5.26455	2.48628	-6.21907
20.4638	0.6584	7.69454
1.21214	6.07647	-0.478767
-16.3428	1.97528	-1.00308
-7.32476	3.00412	-4.54577
-5.87733	1.39453	-5.85721
-1.14625	0.667455	-6.71313
12.0416	3.2531	8.16283
-11.0896	2.45869	1.78779
3.21637	0.529411	14.2964
5.75662	1.24013	4.56426
5.76245	0.146266	-3.90495
6.52051	6.30303	1.69872
-4.12643	12.2072	-8.79658
9.94348	1.25213	6.24049
-7.32844	-3.08396	6.78566
-3.05778	-18.2644	1.22511
-6.17384	1.57123	10.6102
-5.77769	-3.30336	7.66247
-5.48706	-1.22187	6.80426
-9.79679	0.448652	1.17947
-9.5838	4.83476	3.97788
-6.17759	2.86535	9.08531
2.89268	9.87735	-1.15743
-3.44338	3.26977	-1.98742
-4.94851	3.25953	0.16194
-9.33131	2.3414	-0.738647
-6.28942	4.69373	14.5632
1.12788	0.467022	8.68291
2.59028	0.264825	7.28476
-8.94076	-8.08375	-8.81065
2.78079	-0.801613	2.1096
5.34379	-1.60355	-3.546
14.143	-1.42556	1.43335
7.26311	-2.97976	-4.87575
1.3756	0.518297	5.61906
7.37879	4.7446	-7.74449
-8.47196	-0.766238	-1.87415
2.02748	-5.08231	3.91775
8.30149	-1.13238	7.08594
3.1662	0.207736	0.557625
4.02454	2.03192	2.87408
3.27568	1.06392	6.52184
7.9268	-2.61024	4.56293
4.75447	-4.65147	-4.90341
7.41293	-2.85629	-6.70894
12.6312	1.24785	10.6957
9.14275	-1.55655	3.93095
4.50518	-2.23884	-4.3374
3.5744	1.85861	-11.5671
-9.75805	1.14861	-9.62077
-10.8248	9.33861	5.47117
-5.60279	-3.46036	-12.709
4.67398	2.50426	11.9653
5.13471	-1.0217	4.14512
-3.92423	-2.04018	2.99731
-15.4228	0.888035	-9.15361
-6.60911	-1.62971	-5.67291
7.87959	-3.0696	-0.898068
7.38253	4.11137	4.48152
-5.14454	2.85878	-17.1634
-12.2663	3.66067	6.25425
-0.309018	-4.65568	9.80351
-6.7175	-3.05723	-1.06661
-3.23763	-0.225603	10.6242
9.50615	-0.30869	1.9204
5.77161	-0.594313	6.00592
4.84662	-2.25068	7.13519
5.67718	-0.96962	1.36695
-13.1509	0.280662	9.31628
12.0749	-1.21909	1.09528
7.1659	0.281795	2.92842
-10.7109	1.09781	0.871478
-8.55485	-0.111007	2.12827
-4.28756	0.237453	3.55265
11.5163	10.0127	1.09388
3.90036	-1.83268	12.0056
-7.91069	-4.01585	-13.213
11.0745	5.53656	1.29362
12.5081	-0.562888	8.37859
13.3194	-2.88977	-7.86373
-4.49996	3.86161	-3.99595
-7.88956	3.6748	2.17658
10.1608	-2.98146	2.76615
11.6994	-4.27052	0.597834
4.68383	-1.33443	-7.08415
-5.70204	0.267037	5.30082
8.78523	-1.6334	3.42472
12.0151	-0.848511	6.1306
3.91156	2.16469	3.91171
-4.72769	-1.51975	-2.3538
-2.91691	0.886012	7.75597
-6.87905	-1.18492	2.86668
-4.15527	0.692257	-10.3424
-3.82205	1.0311	4.09274
1.70401	-0.17704	-6.19216
-7.49187	0.602678	7.67998
10.243	1.59528	4.09764
0.172948	9.39237	0.185315
-6.15124	-2.69975	0.825246
-9.31757	-1.02217	5.87548
-11.5343	2.27606	1.1103
-4.89796	1.55197	-5.01972
-6.87588	-3.80581	-1.12596
-5.79028	-0.191902	3.10545
-13.1274	-2.39636	0.36916
7.19047	-0.476866	0.255058
4.61707	-0.798115	6.95396
4.30532	0.150575	-3.74141
0.45898	3.65043	9.41497
-5.55001	3.29424	14.455
-3.79819	-0.159044	4.88727
11.4816	-0.480899	2.82736
8.06634	1.67269	-1.57366
12.8068	-0.483447	-4.51703
5.65508	-1.52361	-3.17119
-2.07346	0.484706	5.8513
-11.6742	-5.15899	2.30281
-13.5806	4.71076	-0.739479
3.49001	14.0575	-3.96022
2.8497	16.0955	-4.8943
8.25383	2.45681	-7.98012
6.14778	1.61195	-6.73995
2.30537	0.377979	2.84116
-4.91567	2.5504	-6.44877
-8.86853	-9.16705	2.67227
-12.4358	0.411493	8.995
4.02347	0.5305	-1.16373
2.16845	7.00885	7.22778
-0.00919737	2.53666	-9.79219
-10.7819	-4.88554	14.2068
-9.49419	-0.755481	-0.755566
-0.355935	-7.7827	2.97334
15.1564	-1.59622	-1.86734
11.0006	1.50481	-5.64896
5.82018	1.55365	-7.61026
-9.68139	1.64441	-22.1145
-3.42432	2.16715	-7.38511
-8.52623	1.10253	1.73828
3.55097	0.0886888	-9.87195
12.5819	-1.17638	3.25386
3.22637	0.870004	-1.342
-1.89453	-0.209865	-5.71063
4.89081	16.332	-6.93644
-19.1272	-9.45381	-0.462076
-0.86435	-7.65423	-5.81601
11.3803	0.293857	18.7072
7.10027	-1.63636	-4.2181
9.63379	-3.43737	-6.57449
0.403684	-4.54364	18.7745
-0.802047	-4.1088	-4.43234
-1.95546	4.39199	-1.63064
-8.28234	-2.20786	-0.118501
-7.76932	-1.1675	1.45016
10.6515	1.70913	-5.19656
8.90084	3.7064	-2.59518
1.32567	-0.71627	4.06402
-13.2612	-6.49731	-0.0793598
-7.07127	2.04156	10.4342
-0.687116	5.647	2.47499
10.0304	-3.48141	1.15645
-2.56568	-11.7722	-4.14699
1.2443	0.649415	-8.83914
-12.4357	-0.760605	-0.637952
5.31987	-2.88286	-2.77582
-5.41963	1.6044	-2.5643
4.28474	1.39225	-4.1397
9.26192	-3.63991	-3.7041
-5.32791	1.31606	2.53539
-4.05809	-0.630986	-9.08589
-18.0234	-4.98482	16.4248
7.55771	3.09514	-2.86213
4.86227	-1.46416	-2.8915
6.65208	3.66914	1.09934
9.39196	2.92434	5.64239
-5.27512	-4.36531	-6.1312
-14.132	5.27924	6.20822
0.256491	-12.1277	2.492
-1.13075	-6.17341	-2.58294
10.9149	8.3702	9.80138
1.33558	-3.04529	-5.87442
9.55647	-1.09556	-5.13431
-1.13357	-5.27683	-3.34701
-6.76561	2.99639	-0.788296
-8.90857	-1.14727	6.38162
-11.5503	6.45808	-13.9594
-7.09954	4.33857	0.677661
-11.8966	3.78947	1.67678
-10.4633	2.1653	-1.62419
-13.9862	5.84649	16.8774
-6.6589	1.40086	-0.523265
-4.90094	3.59374	5.98109
-7.96044	-1.36862	-10.4632
-9.74243	-0.168576	-0.763113
7.20843	0.0136601	-2.74175
-16.6911	-4.61918	6.85767
-5.68055	-1.31735	8.40492
-2.62589	0.947607	4.09975
0.291908	-0.0373243	7.46145
-1.08935	2.71881	-10.6737
-9.53172	-2.23798	-4.84569
-12.8508	-2.10691	-0.589973
-2.03415	10.9286	-3.27697
-8.06153	-3.74523	4.11691
-6.90714	-7.04748	-1.26422
-3.97899	-0.430362	1.86361
-6.4679	-3.77688	-1.2752
10.8057	-6.1794	4.60044
7.79236	2.92867	3.38402
6.94596	-1.43076	1.43305
-4.2465	1.39837	-8.84724
-1.53315	-0.168885	5.96968
-0.595971	7.22758	-6.94525
-8.10486	-1.50053	-5.70383
-3.90962	3.13034	10.3179
9.87522	-1.15652	-6.4321
8.42459	-3.72999	-5.29517
10.3708	-2.20361	-3.1782
8.85918	-1.80974	-10.1691
5.46259	-3.33281	7.63299
9.28406	5.97897	2.09348
9.80218	-2.07233	-3.82994
6.4926	2.05532	4.36116
3.54854	-0.278724	4.19559
0.635237	-2.96317	-12.1454
2.82429	0.0221624	-9.77905
1.90997	-0.236339	-8.70298
5.50682	-2.09915	2.82494
12.5512	5.03523	-8.30055
4.75148	0.41461	1.43121
-4.14261	1.72823	7.53521
-11.38	-3.97534	1.45333
-10.0713	8.16204	13.3914
9.36022	-3.44323	-9.48168
7.642	5.28713	-3.44896
18.4382	-0.0198775	2.55123
-5.5653	-0.0523104	-3.84162
-3.56069	0.342622	-13.103
0.958184	8.16127	0.711341
-11.907	-0.848624	10.2294
-3.66117	-1.27868	-3.21755
0.187747	-3.16881	-0.809726
7.59203	1.37526	2.36121
0.142193	-1.94364	-3.4438
-17.8013	3.20327	7.78074
-2.46958	0.333322	-6.00487
-9.14828	0.185956	5.60516
-10.6521	4.29263	1.21721
-11.0407	1.53916	-0.324731
-10.5975	10.8633	-3.68706
-7.81438	-0.782006	-2.85137
20.2147	-7.71361	-0.303052
-10.2193	6.33679	1.39297
0.932794	-0.596301	-8.05552
-3.09354	0.800946	-2.55301
0.290786	-7.76143	-1.93312
-9.05349	-0.48235	-7.45516
-3.77877	1.51567	6.8992
-1.82323	0.209107	10.5602
-8.88174	4.15663	-0.491834
8.43233	-1.00648	-3.9787
7.1416	0.772953	-1.05126
12.3008	0.767029	5.17387
3.04878	-0.607652	4.9649
4.46874	-0.0623472	8.61808
6.22372	-2.88783	-0.394554
5.34689	-1.49502	-8.37222
12.9037	3.28575	-4.71299
5.43777	2.56087	-1.40007
-9.03697	3.92077	4.62944
-5.44214	-1.29595	-0.032972
3.75471	-0.913565	-4.34184
8.43263	-0.702724	-16.8824
-4.00732	1.1193	1.07902
-2.51121	-0.102617	-5.35042
-17.1428	4.40031	11.2267
5.56176	-6.46265	0.115997
-4.68916	1.96179	-5.66307
-13.3711	3.35633	2.3893
-2.43087	-0.526392	-13.7406
10.8969	-1.24623	18.3985
4.95594	-0.373944	3.9311
-1.70285	-0.268149	0.759027
-3.6941	-0.712294	4.28799
5.47481	2.66665	-10.2902
-6.76066	-0.816601	-1.01763
4.84265	1.92366	-8.90678
-2.30686	-13.9775	-4.78346
-3.92855	2.32328	-3.03444
-11.9389	2.49264	1.991
0.838871	-6.20971	-3.44778
0.754364	4.04275	-7.00671
4.06645	-1.32515	3.17033
-8.06547	-0.0173368	-3.09159
0.909985	-0.617066	7.42711
0.280493	3.5201	-9.80021
4.82201	0.00597977	-7.15925
5.28151	2.18909	3.52592
12.2243	-0.541931	-0.628276
-6.94236	-4.132	-6.30048
-10.801	0.853364	6.21407
-6.24345	1.6416	-7.45987
5.06584	0.245116	-10.702
-9.62076	-3.9128	-13.5996
-9.69799	0.0238855	12.7435
2.26388	0.402112	-5.98262
-3.96417	-0.164499	7.26823
12.2383	0.334608	-5.41013
7.13383	1.93139	-6.58929
-7.87552	1.50108	-8.24227
-2.83256	0.035536	-4.92161
-0.374439	10.6974	6.01084
10.6485	-1.66567	0.608627
-8.89437	-8.71084	-3.79545
3.50052	-1.04462	8.28331
10.4723	3.10864	1.66162
-9.00792	-6.28903	7.14726
-5.53074	1.94259	-4.0709
1.13055	-5.37407	1.80996
2.66772	1.49118	-4.65401
-6.86997	1.62158	2.56767
-14.7206	2.57835	-5.99569
4.46688	-2.7716	-11.0073
12.8171	-3.44678	5.00141
7.75327	-1.63068	-2.91771
-1.86524	-11.9439	4.31611
-8.14244	0.719445	5.94983
3.94183	0.71213	-0.256131
2.88329	-0.456294	2.59801
3.50605	2.86558	-2.97627
-7.96095	-2.12957	-2.65758
14.4548	1.07921	-2.3622
-2.5359	0.369645	7.43071
-5.92129	1.9142	-10.0631
-6.09525	2.22416	-8.7766
-6.22243	0.456286	5.15947
-2.9434	0.0779718	11.5541
19.6627	1.80279	16.9114
-0.521978	-4.49324	-8.70836
11.0514	2.7506	-3.95143
8.31392	-1.14762	3.23052
-12.5363	4.65603	5.04464
-5.52146	3.9219	-5.94957
-5.60338	-0.93714	-11.7923
-10.721	-0.729475	-9.87758
-4.59643	0.0976018	1.55409
-15.0059	-1.50773	2.71722
-5.99853	-1.42043	-1.62892
4.9509	3.29306	0.420221
10.4422	3.24983	-1.41637
-1.06683	-9.86668	4.30673
-4.78282	0.606934	-5.30162
2.95692	0.447726	-4.25516
4.12088	-2.20179	4.10777
9.79073	-1.3843	15.7793
9.39444	2.90967	2.46062
-13.8959	-3.14252	-2.03521
7.48818	-0.66908	-10.7969
6.71335	-2.698	0.117211
15.1021	2.59143	-4.05198
4.80575	1.09493	-4.07863
-0.299291	2.10431	6.8385
-10.626	-0.360997	3.53464
0.236873	-2.91295	-6.50179
-8.5145	2.08907	-6.47692
-7.73545	-2.44023	-0.63658
-1.18818	-0.415667	-8.85181
-3.4427	-1.21396	-10.5068
2.62643	10.3827	-1.61706
6.79599	4.93543	-6.16145
9.89484	-2.14827	6.53546
6.70954	-0.526078	-0.873205
10.4505	-1.00256	-2.53391
16.4633	0.248435	9.0987
10.6486	-6.42434	2.11771
14.2608	-3.67379	3.99852
14.0821	7.20468	-1.97021
17.4506	2.11658	9.88848
-10.7154	3.10057	-7.14319
-9.18944	-2.20822	-0.81385
-4.46684	-2.77389	-0.234884
9.68204	-0.87936	5.26886
10.3569	3.68631	-24.5895
1.85787	0.232809	12.7532
-8.60977	-7.21245	-0.692261
-8.23634	-0.859687	5.38338
0.981408	8.54635	-2.36277
-4.26724	-1.22882	-5.29386
-13.1859	6.64951	7.42674
-0.77939	-6.29075	3.394
14.1621	2.05105	-0.48145
9.29767	-0.724094	3.31447
-2.74675	0.442017	-0.604546
-14.6436	2.22851	-0.486529
15.3203	-5.50464	-2.40503
2.43763	-0.467342	-6.20141
12.7208	5.4619	-0.755089
15.1327	6.12111	16.98
-7.22956	-4.27067	3.10087
9.71166	-0.800451	2.07301
2.73945	0.819211	-3.10051
10.329	2.79841	-2.91652
-1.39219	-6.08349	-6.4571
19.889	9.26272	1.47073
-9.54065	1.77356	3.40819
1.39835	-0.00640512	6.92216
9.84507	0.653611	7.74623
-9.61546	-4.20873	10.6998
8.97103	-3.03928	-0.655002
6.57219	-2.00976	-1.5718
6.9709	2.58317	8.03692
3.72294	8.62651	-8.11747
-0.428575	12.5055	-6.01175
-5.61865	1.58889	1.37241
7.60235	0.5019	6.9391
11.5746	2.76347	5.50371
5.14648	0.623828	4.65076
6.26202	-0.152987	-3.60754
-2.7136	0.0942505	0.977984
1.62544	-0.338571	-9.66502
5.72581	0.750802	-6.60847
-9.44965	-2.32277	1.58947
-4.69491	1.64732	5.83819
5.74609	0.0531381	-0.913832
5.75773	-3.44753	-4.19469
6.91498	-1.50197	6.8245
4.14916	3.59057	-2.06588
8.01637	5.17869	-3.30916
-11.6472	-0.821009	6.0184
-10.4093	0.662993	-14.1821
15.7792	-3.76435	-2.46318
11.6939	4.48903	9.87679
7.15442	-1.91828	-4.11284
-0.837126	2.31579	-3.20274
0.611635	-7.90347	-4.95295
-9.34228	0.728153	9.98642
-7.28164	-1.23894	1.51221
-3.59899	-15.5664	8.88386
6.52854	-2.66893	4.39088
-7.69056	-2.31311	-4.23028
-3.06848	0.760798	-5.95136
8.17336	-3.26173	-5.31643
0.932784	0.0671761	9.33639
8.98331	6.63342	8.17476
4.54015	0.261517	-0.600245
9.9097	0.444069	-3.32823
-13.7001	-0.0831873	-10.3581
-18.2512	0.72226	3.5117
-10.2046	1.887	1.33507
12.8934	4.02189	-3.98351
9.95509	-3.40356	-14.806
-3.82483	0.248484	2.65514
-13.1125	2.57904	10.1979
5.78358	3.17201	12.9195
9.516	-7.23589	2.22684
-10.761	5.63661	-0.273924
-3.52382	-1.04447	7.20093
7.66723	-6.21934	-12.5771
0.660238	-8.18903	1.22392
1.27593	-0.0265086	-4.10311
-9.97479	-0.760776	7.36238
-6.6695	-0.324484	15.614
10.1102	4.039	-11.7652
11.9881	0.498029	8.91685
-0.822153	-1.71259	3.35885
12.2832	-2.89779	-5.23229
4.474	0.870219	10.6451
-0.379806	10.7559	3.89166
-10.6722	1.94331	4.53691
5.96846	2.82885	-7.68151
13.9739	0.84941	-5.12561
-1.3279	8.44796	-4.27032
6.52182	0.562361	-2.61906
-5.25915	4.69895	6.56293
-10.5004	5.60061	-0.183011
-5.56822	0.872605	-1.43649
7.64499	6.24275	-10.5414
-0.678462	-5.52553	-4.6485
-13.6417	-0.636922	-9.9131
-1.78326	0.777848	16.0085
4.44606	-0.838762	0.728592
-3.80243	-1.14649	-1.20996
6.94974	-1.62966	-5.91005
5.65211	1.39422	5.01711
13.8912	6.60109	10.2122
7.64748	-4.56407	-7.41758
12.8477	-3.18163	-10.5897
6.60307	-0.0406793	-3.14744
-5.54502	-1.1435	-1.39517
-7.15688	3.25557	3.92833
3.61988	-3.10829	10.0079
3.55347	1.03445	-6.10613
-2.83415	-8.53231	-2.0504
-9.41811	-2.00985	-1.15942
4.45698	0.750062	-0.764004
-2.6158	0.494572	-2.30188
-6.14362	2.81834	-9.09296
-6.27028	5.15565	3.7721
6.31755	3.11756	-0.842863
-2.93007	-12.8782	3.65592
-0.192069	7.0257	-6.8779
7.54954	2.47106	2.1438
9.08178	1.75835	-2.35869
8.04253	6.86646	1.64522
-5.809	0.547055	7.28707
10.5385	4.57717	1.47012
-10.0637	1.90696	-16.632
-6.49506	-2.23426	3.08519
-3.09612	-0.477486	-8.6489
-4.37204	-0.243152	10.1236
-10.0422	-0.346652	9.77451
5.68804	-1.12957	-7.74756
7.92583	-3.30225	-7.82218
-5.74714	1.2295	4.08366
-7.22652	3.17257	3.62957
-5.36924	0.326178	1.24418
-0.977793	7.15583	-9.42059
6.51425	1.4515	8.12328
0.178067	-7.85306	6.33899
3.91024	-2.38667	-4.48499
-2.8116	-0.492738	12.9566
-3.51946	-0.968979	0.262148
1.63459	0.0919266	-5.30642
9.07253	-1.39138	6.55837
3.53657	1.87308	-0.937498
3.94972	-16.6708	-3.12425
-8.10889	-3.74758	9.24304
5.95831	0.979832	-1.16875
7.63932	0.518004	-1.09831
7.07725	-0.672555	4.95352
9.68451	0.0985048	-9.82894
11.5383	5.51757	-4.51107
6.26481	-1.29237	5.08034
1.03826	1.00241	7.41477
-8.61755	-0.13697	3.76472
-8.51811	0.344805	0.894471
0.455621	8.37613	-1.29217
-9.30307	0.777327	2.52528
17.3904	-0.326296	4.71433
-0.464744	0.0180441	13.0365
14.2307	1.95543	-0.839502
-11.5882	-0.173728	-5.8473
3.49908	-10.5292	-4.85815
-6.88706	-2.32491	-0.44775
-7.22778	1.30779	-3.69102
-6.36373	-0.0955644	1.6479
9.15524	0.377119	2.66713
0.219886	4.95261	2.73199
-7.08644	1.18322	-4.31715
-0.3529	1.36326	-9.95288
5.64697	1.99303	-2.85575
2.45688	1.49708	-2.52339
-12.8159	1.85814	-11.6985
8.55871	-0.289756	4.65641
-7.6239	-5.49686	-0.347224
-7.5832	-2.34852	11.6382
11.0748	-0.963486	3.53682
6.49162	1.70585	8.89837
-2.15626	0.808158	-4.65232
-4.82592	0.676207	18.0314
-10.6789	7.97035	5.73048
-9.49618	1.84662	-9.62223
-10.8827	-1.54278	-2.01766
-3.1821	-0.792061	10.2212
3.56062	-1.52832	-4.44849
-4.89072	-0.915684	8.2483
-8.14314	1.60735	7.43131
4.63909	-0.132555	-7.36292
-13.2649	4.55988	9.31648
-8.43454	3.36656	1.42968
-7.17451	2.30048	8.7957
9.28222	-0.627936	11.7937
10.0766	4.46082	-5.16295
-2.88866	9.81938	-8.07573
-7.77731	-5.71655	1.37533
5.85102	-4.46354	1.51753
5.70391	-0.841809	-2.86573
-6.93505	3.0688	-10.5534
2.22743	-10.7167	-9.64999
9.59511	5.14862	-0.243864
5.85631	1.58478	-4.3529
19.195	2.2181	-4.59982
8.71068	-1.29618	-2.10348
6.81101	2.44144	-7.16615
-2.50239	-1.97728	-6.60081
-11.8288	2.38867	-3.78142
-6.96648	4.27845	-2.63369
-2.25766	7.36665	-6.08619
-1.83508	-4.18711	-2.54238
-3.31453	-12.638	4.62576
5.92747	-2.44362	-7.47275
-3.02672	1.05926	-0.59256
-10.4206	4.54616	-9.333
-10.4712	7.19211	1.67917
-6.41862	-0.195663	2.7896
-13.1383	2.63572	-0.614324
10.0112	-2.82811	1.12588
-9.56353	5.50926	6.4164
-9.24037	7.19955	-3.22345
0.0816195	2.93812	-10.8824
16.0753	-3.52855	-13.158
-13.2452	-0.745749	7.29404
4.55509	3.55079	1.9998
-0.545452	0.310974	2.48294
-7.96499	0.402621	-2.25081
-12.4922	4.13903	6.595
4.58157	1.04276	-5.45463
0.00784678	-10.1476	-6.29475
6.79814	5.54787	-5.00922
10.0592	-0.372779	0.0538492
-10.4703	-2.52952	7.65239
-8.26643	-3.20807	-5.47621
0.18319	-3.10624	-5.74352
0.930753	-0.124498	6.76223
-9.39688	2.03995	2.13454
4.73141	-1.17497	-8.13576
11.0737	-4.88177	2.09814
-6.74929	2.69136	-4.63517
-12.4382	-2.12606	1.28562
-15.84	-0.293822	-4.29353
-3.51693	-8.42923	7.00578
-5.14953	1.13996	4.34417
-9.38282	-3.10599	4.45641
-10.6403	2.1032	2.89295
-0.185564	-1.88589	6.67829
6.1391	4.93282	-0.781973
27.7442	-9.54585	5.02614
10.0378	1.53456	4.20958
1.54564	5.16756	12.7548
-10.1649	-2.12387	5.81365
-11.0873	-4.57635	9.77023
-6.43663	-0.979963	6.07269
-16.2206	-2.87555	12.0651
0.500467	-7.28987	-2.21414
16.8165	4.67043	-4.69557
-0.384572	4.29725	-0.837188
7.44316	1.85972	9.51102
-3.56503	-0.557003	-6.56528
0.211003	8.68381	8.28361
-10.8842	0.363358	2.55282
-0.679138	-4.5596	-7.53898
2.69901	-9.42908	-9.19136
4.18262	-0.712951	0.419673
-7.06657	2.91913	-7.13123
-6.59433	-0.680546	2.38953
-5.85872	-0.100342	-6.49998
-4.6821	0.188323	15.6424
10.9801	-3.92705	3.69977
-0.323437	4.86	5.29209
11.5817	7.01706	1.2252
13.2967	2.13127	0.390228
11.5868	-1.66297	-2.49904
-12.1388	-2.21867	13.2749
-5.26877	-3.85369	4.53883
-10.6975	-0.534685	1.58147
1.29746	-0.182116	-7.48222
-12.2092	0.381963	10.1259
-3.06557	1.05989	-3.2651
10.8644	3.17292	-2.32621
-0.161654	-10.1953	-9.26119
-16.1004	-7.62846	5.2143
-2.21406	0.0198515	-4.46465
0.990798	8.40351	-1.61653
6.05995	0.302929	-6.01392
2.74744	-0.086915	7.08748
-2.02236	-0.240146	-10.6804
4.3678	-1.96787	-3.73912
-6.73043	-3.53902	11.3627
10.7219	0.208671	21.8158
8.70321	0.309004	0.81247
10.4694	-1.0655	4.4807
9.28253	-0.140928	-1.43375
-7.44535	-0.648355	0.613101
-5.76903	3.02486	7.26951
-9.32206	-4.1392	2.13195
-5.00004	0.758065	-7.60841
-0.243429	-10.9251	-4.50327
-3.8724	-7.78664	-2.83115
-2.30078	8.16679	-1.99137
4.14633	-1.60324	-0.172221
-9.69178	2.10702	-4.16727
-3.51202	-0.372112	-3.33415
-11.39	-3.26285	-11.3863
3.43879	0.570602	7.26523
8.08841	-17.8752	4.98808
-16.3925	4.83608	2.48734
5.59186	2.16726	-0.362249
-7.17738	-2.15052	-5.13016
5.12082	2.50038	-4.1616
9.44526	-4.99687	6.78201
-3.85416	0.805378	9.01494
-12.0037	1.90677	-9.54015
-10.756	-0.775608	-11.9822
-7.87753	0.824834	-0.315026
-6.11473	1.5897	-1.35601
-9.43685	-1.03387	0.691533
0.900127	-21.4675	-6.73366
13.338	0.538942	-8.2297
-11.7224	-5.71444	-4.92295
-0.612166	-1.83212	3.69883
9.40389	-0.441626	5.12516
6.54356	0.453336	4.33677
11.4983	-2.08151	-7.10455
5.3941	-0.770124	-12.3051
-5.17614	0.0067626	-5.09017
-0.0654636	8.76979	-0.26219
5.71877	2.49889	-3.8729
24.6497	-2.05248	-1.60663
5.49603	-1.52118	3.86112
8.95217	0.723186	5.1747
0.0152323	8.93943	-4.66563
-15.0209	-10.0599	-1.33133
-7.90489	-0.474265	2.76238
-4.45686	2.65629	1.00761
0.829928	-13.4985	5.05522
-9.70092	3.18066	4.44137
-6.03455	1.45298	2.77613
7.77121	2.33154	-5.84341
-0.311469	2.38701	3.17782
-3.45795	1.2517	14.2742
-9.65429	1.81749	3.15687
9.25427	-1.86964	3.36798
0.0427128	0.173816	6.9141
10.4529	-1.07611	-10.2011
15.2547	3.81566	-14.6913
13.8421	-6.92909	8.5646
11.1822	-6.87971	-9.42585
16.2586	-7.62801	2.5164
-1.08628	4.69325	0.79676
10.2198	4.1202	14.0592
-1.60685	0.253879	-8.79289
2.69445	-2.38491	-10.0579
9.94869	4.2659	2.36462
9.835	-2.25434	0.995973
5.8155	0.952327	0.417384
-2.44471	0.701821	3.78917
-6.50732	-0.331306	7.35391
5.1233	1.62007	10.2727
10.1188	8.42373	0.809631
-10.4161	2.76989	-5.31633
-2.71855	-8.96644	0.891616
6.70331	3.63203	-7.48254
-14.2747	2.95546	1.64408
-7.3159	2.46894	-4.90889
-5.19724	2.31129	-5.75216
2.2339	6.70008	-11.5409
-11.2577	2.0835	-3.94651
-4.49791	-3.3427	-9.39483
4.2979	1.58055	5.71909
-1.84159	12.5612	-3.58102
-0.604849	-8.94942	-0.101793
-2.08834	-9.48556	2.25024
-3.54958	0.903674	6.31556
-5.12374	-1.94476	-4.33544
4.49279	1.38544	9.19672
3.51282	0.274902	-1.14281
-0.522861	8.26353	1.69978
0.0965354	-5.05461	-2.28363
8.50273	2.45718	-0.9629
6.91832	0.128957	-0.574482
8.62109	0.614984	-6.73192
9.18065	-3.90652	8.7876
8.75163	4.04784	-4.22856
5.29215	0.872918	6.242
-2.98098	-1.23278	12.4291
-19.811	4.39294	-5.98506
-7.3292	-2.08351	0.979224
2.81526	-0.687889	-6.14107
-6.92823	-1.33353	-2.47592
-8.78319	-1.11816	8.06768
-5.46623	2.22526	-7.97431
-0.267547	6.68364	4.49222
-8.88518	7.09406	-8.64202
4.55247	-1.30031	-2.8495
-10.5492	-1.28783	9.03818
-12.0231	0.51768	-1.28826
-8.83597	-3.85006	-9.33278
-8.4348	0.708189	-8.15554
0.945729	15.1386	-0.866878
-2.98707	-1.5112	-0.301195
-9.48852	-4.2374	-0.408275
4.55961	-16.2451	-2.99625
5.18157	-1.52297	1.83115
11.3968	-3.88232	0.269886
11.7977	3.11234	9.3402
5.99554	2.971	0.798311
5.32242	1.689	-9.81621
-7.6029	6.61793	-6.51
3.72362	1.42512	2.74272
4.34895	0.836517	12.36
-12.6895	1.0222	0.140673
6.32009	4.04038	-3.37142
-8.24587	-5.31442	-6.02806
6.0471	-1.13419	1.82775
4.27834	-12.9155	-5.55593
-13.2121	-2.76045	-1.5721
-8.94826	-0.740707	-2.6307
-7.65453	-0.936044	2.9716
10.462	5.36637	2.11568
-7.14034	-4.5184	-2.22204
0.376137	-5.33496	-7.16045
4.56368	1.10428	5.41722
12.2839	3.44464	3.72551
9.89872	4.65041	4.16972
12.8973	-1.5972	1.0409
7.60297	1.05324	8.58336
7.0013	-1.42809	-8.43906
-0.909073	9.86164	-1.29541
10.9738	-0.0851435	-4.11076
0.512854	-0.964742	-5.29589
-7.75156	-4.93837	-0.172814
0.33976	-5.63003	-1.07196
1.03322	-10.0039	3.10974
-12.5963	0.426509	6.16896
-6.69369	-1.82276	6.52248
-13.6195	-2.44275	-4.00813
-5.91109	-3.72078	-3.71689
11.5408	-5.20649	7.07547
1.86567	8.30284	-5.11059
-4.9479	-1.45312	-4.94907
10.8666	-2.54055	5.85563
-8.39685	2.89821	6.94847
8.25369	1.0602	-2.6405
-6.94664	1.07152	2.1804
8.50712	3.7313	1.44809
3.9288	0.0949964	-10.4433
-0.391064	10.0248	9.94612
-6.26808	0.678927	2.02626
-5.04219	-0.311348	2.66965
-4.54635	-0.851826	-8.56901
9.86344	0.305511	6.11034
-5.73637	1.16083	11.5477
-2.2797	0.23373	10.0854
-12.967	1.91815	-0.721987
-1.24339	0.324701	4.63237
-7.99363	8.72117	-14.2951
-10.7205	3.65501	-0.298249
-10.865	0.339373	3.75554
8.09493	2.47019	-12.3001
2.82459	-14.1404	4.37772
-7.43374	-5.04817	-2.19465
10.76	3.70839	-8.17597
-0.0538605	-0.927437	5.58729
6.84503	-0.994115	0.600257
-6.37529	-1.48864	-1.13996
-6.32358	-1.45075	-1.79762
-0.642043	5.58338	1.81931
-7.44464	-2.7457	4.68218
3.8806	-8.79642	-3.4791
-9.0113	0.626602	-1.51703
1.95538	-5.81857	-4.30105
8.34947	3.36374	-4.34751
9.55475	0.63424	-9.5203
-5.50168	1.22877	-8.6827
-13.166	1.05615	7.09131
0.39303	6.15066	-2.38941
20.2515	9.74963	0.455765
6.41305	0.0146392	-2.68144
-16.256	1.6619	3.85394
-2.86771	2.09734	4.51365
-5.67148	-1.44942	-3.97773
-5.72173	1.22494	7.42022
-2.27457	-13.3404	6.75593
9.78331	0.316834	-0.318265
9.75323	4.19047	-0.421935
13.1667	-1.45125	4.03049
-4.48907	0.394929	3.67731
3.77668	0.909826	1.1057
11.8548	3.0844	2.62379
-1.57101	-5.17244	-3.32765
3.55675	8.70899	0.0463507
-11.1799	3.40579	-2.78201
0.151407	-4.43624	1.15083
-9.64295	-0.788972	-5.97399
-7.06496	-0.26849	2.39367
-8.3249	-4.7778	6.89933
4.92555	-5.3156	-4.78499
4.80089	-0.0782745	0.147553
12.8206	4.97843	6.53214
0.241094	-6.87253	2.52291
-8.00879	-2.38521	-4.47383
5.82383	-0.269802	-6.03693
7.53187	1.29642	9.05094
6.63718	-2.66108	15.2651
-2.82509	-5.33829	-5.58193
-10.0104	-2.33477	-0.999947
-10.4707	-0.195938	-1.47303
-9.11299	-3.74702	-3.42201
-7.20497	-3.7385	4.90668
-7.77853	0.461811	-1.38978
-7.03063	4.99089	3.05173
-7.43947	2.73932	8.35458
-9.63063	-0.257878	6.37858
-5.42757	1.66962	-5.51327
10.1537	-2.48668	-3.9388
-10.3884	1.34973	4.08944
-12.6265	0.880876	3.62997
-1.8837	-8.07711	-3.60299
4.68228	-13.4239	1.16335
7.59246	-3.44284	3.37652
-1.66264	14.7202	-0.048731
16.1024	-1.98746	-0.015392
-9.81877	1.68065	-2.3675
-6.26415	-0.753466	0.883017
-10.1834	4.64978	4.08488
-8.27808	2.35486	-5.52637
-8.70021	-6.51128	2.7355
2.84992	-0.147972	-9.28821
5.11245	2.6629	-5.45775
6.4796	-0.761748	5.81202
-0.411829	10.1374	-8.65876
8.59203	-4.50735	-1.14831
6.2701	-0.841624	3.52329
-11.8576	1.21795	7.75547
-4.1477	-1.94699	-6.50651
-1.19147	4.16913	-8.58737
6.26569	-2.92313	17.0336
1.0247	7.084	3.85484
3.13932	-0.529162	1.78418
3.361	-0.709398	7.82671
13.2412	5.37904	-4.67683
-0.817471	-3.31024	-1.298
7.73774	-1.25991	7.07001
-10.3804	5.30976	8.01118
4.81915	0.180552	13.2419
-3.47983	-9.16875	-11.9805
5.78981	3.99753	4.1973
-1.91577	8.81595	9.19871
-3.43244	-0.799937	-1.63586
-4.08145	-12.1585	11.0796
-14.802	-11.0724	-0.254703
-12.8864	-1.96715	-1.81332
15.2695	-2.56216	1.64405
9.59144	-2.90338	-0.809398
17.7616	-0.331263	5.02645
3.27532	1.34943	10.3804
-2.70011	1.36701	6.04806
-17.8427	-0.887275	-6.95775
-0.31102	-1.98757	-6.37114
9.6108	3.20933	4.30481
8.78318	-0.992808	5.28126
-4.75902	-1.69655	0.33949
-0.25756	12.7563	-1.28938
13.3548	1.78955	4.18865
-10.0506	5.13458	3.77161
-8.12755	-5.31803	2.4367
-0.164949	21.4418	-1.53804
-8.34668	0.364222	-8.89472
9.31008	4.11057	5.32301
11.7191	-3.4309	2.74231
-0.380112	-0.336039	9.25704
-10.4279	-2.47048	-0.552595
-7.36969	-1.39556	-3.5075
-20.5168	8.2895	-5.38661
2.4206	-1.29688	3.32036
3.7935	-0.267325	3.75502
6.97543	-1.95078	-3.40325
10.2676	1.66623	7.91708
8.69907	-0.0896247	-10.527
9.99246	9.6483	5.80171
3.29095	0.221704	-3.90663
-11.3428	4.04372	-6.77186
-5.91673	0.0913649	-6.18745
-7.82652	0.602877	8.23058
-5.77732	1.69636	-8.99333
0.261014	1.80571	8.84177
-14.0481	4.83252	-0.352414
4.78202	-0.229582	-9.15126
-3.34787	-7.89174	-4.23752
7.84191	5.58387	5.79536
12.3562	-7.72289	20.0079
-7.56377	1.01265	5.32408
-5.1509	-3.1244	-8.45129
-3.55072	2.63129	-10.4532
12.1889	-2.23502	1.23165
12.8511	-9.56573	-0.038854
5.36485	-1.13943	5.87298
-5.43561	-1.45124	8.2181
2.20235	-7.32039	-5.59001
0.933948	-7.252	5.55657
-5.96522	3.35758	3.5247
18.4531	5.11811	-4.75826
12.0663	0.943927	11.344
9.73377	2.13691	-8.21961
10.7057	3.66625	-2.73327
-0.543251	-5.71352	-2.83946
11.0008	-1.98322	-13.6747
-1.43813	0.389969	10.1699
5.16423	0.0726027	4.38534
-11.0606	-6.44856	-5.11752
-4.6786	3.38893	3.94156
1.94172	-1.42436	9.13039
5.13548	0.972017	6.70108
-0.378687	-1.69449	-1.1066
10.5185	6.06571	-8.32105
-18.1801	-2.80954	0.805769
-11.8603	-8.26117	-5.54769
4.41575	0.304838	-6.14953
2.96936	1.22324	-5.84828
4.42564	12.3027	0.317657
-5.90747	0.684812	13.3564
16.8988	-5.31108	-2.96803
5.56334	2.84752	4.18625
4.20724	0.907044	-1.38211
-9.0543	5.0257	2.01113
-9.17248	-0.407165	-1.99895
3.92411	-0.797989	-8.59859
3.77615	0.831967	9.68906
7.38695	4.68111	-7.78586
-11.6722	-0.106164	1.16165
6.84429	-0.948082	2.15013
8.39749	-2.6492	5.71749
-15.8102	6.80596	-8.04092
2.56096	-1.2134	-8.92416
6.59682	-1.12099	-3.4535
-0.700785	-9.64603	-10.8928
-4.54885	-1.23951	2.12919
10.5962	7.81096	2.16125
10.4178	-0.269695	1.87898
21.0581	5.32579	-10.9401
0.198838	6.67782	-2.563
-3.37776	-0.362233	-6.37416
-2.89005	0.928624	-4.21204
10.158	-4.72608	1.95914
-12.3554	-0.375394	10.9972
-7.93023	-6.39139	-0.810023
6.6286	0.346035	7.70462
8.04656	-2.14142	-16.0724
4.20571	11.0266	-2.00124
-0.825708	7.64485	-3.34495
-6.1946	2.21309	-1.17092
-0.934474	0.0636948	6.89601
-4.36099	3.81799	-1.30849
4.68826	0.944949	-2.30838
7.64519	-0.754501	6.84893
-0.227009	-1.92377	7.36777
-5.708	0.787276	3.55439
-3.96243	-1.64354	-7.00865
11.0092	-1.777	-14.0249
-9.75308	0.0878269	-10.0322
-5.54234	-6.22562	-1.97454
-15.7988	1.73022	4.22439
-7.8564	-0.18476	2.02549
-5.8841	0.195047	-6.07386
9.74878	-4.62965	-8.2462
-11.5412	-2.23443	-8.14579
-14.2438	-3.60807	-0.898328
7.62082	-1.50959	4.44825
-6.47907	-3.05979	3.45641
1.60947	-9.76758	1.41015
-14.5096	-2.21451	7.16896
-7.20671	2.4603	3.30665
-0.360045	2.2346	12.5289
-4.49896	-0.611331	-2.51968
-6.31309	-2.60353	-1.7215
3.89772	-2.36063	10.366
-2.18034	0.830905	15.2144
-7.66834	0.532941	0.201631
-13.943	9.70296	-6.61663
11.4373	0.669179	11.5478
10.8531	-3.03698	0.68791
2.01969	-1.24442	-4.38092
4.88307	-1.3747	-5.46822
12.0411	7.07161	-1.14824
-8.88726	-8.84262	-14.1065
-14.3465	4.70333	-9.4527
7.63624	3.74857	1.72446
12.9392	-0.0160933	8.17264
11.3111	0.589132	3.99726
10.9732	4.72067	-2.95372
3.66012	0.696789	-2.95788
-3.28873	-0.298013	-3.46548
7.22959	1.17657	1.43164
10.5568	1.05482	-1.01868
5.79603	-0.736334	2.43318
-5.26137	-0.981368	4.05369
-14.8269	1.11863	1.95825
-5.68306	0.441252	4.29738
5.43757	1.15378	1.13606
-8.19376	0.133064	-3.94478
10.023	-2.01576	-4.84085
0.0309161	-3.65577	-2.20659
14.5693	1.77283	0.0482277
5.01411	-1.01565	3.96537
14.2465	-7.27233	0.0604766
-9.31913	1.86891	-13.1097
2.73984	-1.49622	0.979532
15.9436	-5.89176	-0.24927
0.896492	0.198397	-6.10013
-3.57939	9.19778	-9.40977
-1.34151	7.319	-3.93943
-7.93792	0.721473	-3.01692
-9.13613	7.52969	3.57435
-9.77844	2.23499	0.997123
-4.12852	0.635724	-2.70764
-2.76946	-1.76124	-3.57726
-2.86944	-2.95394	-8.30221
11.2973	-6.74819	-7.0325
-4.11186	-2.66159	-6.96576
-5.02337	1.36678	3.19388
10.5015	-0.834599	13.2873
8.86102	-5.13092	-4.3667
10.4048	-1.78585	4.24226
-4.67823	1.08156	0.274296
7.34177	2.65383	7.75481
1.43869	-6.92705	-1.61944
-12.0865	-2.88395	-0.105565
-12.58	-4.0473	6.12579
1.49516	-5.22271	-2.30854
20.7003	-1.96688	-11.3655
-5.05606	0.906577	9.81107
7.67903	-2.14237	2.51794
6.39871	-4.40374	7.02767
-5.20998	-0.117414	-1.20532
-9.91764	0.207397	-0.0944701
1.01575	3.40964	6.63067
8.35484	1.8013	3.17221
-1.45546	-8.33136	0.556698
-11.692	-6.62512	-2.30904
-7.89761	-0.192488	-4.25449
0.0442779	0.417754	8.38855
3.24311	12.4827	-6.02842
11.0218	0.273704	1.13236
-16.4111	3.54039	-0.48242
-3.6731	-2.34923	4.97592
5.53759	0.909	-1.0154
-12.9408	-3.51813	-7.30324
-7.508	0.600813	-10.5978
11.2233	2.13235	6.11483
1.92319	10.1626	-8.24259
-5.74352	1.209	-1.90228
-8.39034	0.792688	-3.54997
-10.8152	-6.45605	7.81904
-5.89209	0.269403	-12.9014
-7.94305	2.47262	-2.38455
-8.06601	-1.41242	-9.02996
4.29328	1.97933	7.17511
9.51971	-1.30157	3.95946
-6.94648	-2.04758	5.30262
6.05624	-2.04538	-5.40521
6.08985	1.51174	-1.97852
6.9927	-1.65835	-1.25572
1.69148	6.1603	3.6611
-3.74898	-0.0202158	-2.09101
7.06927	-1.07401	-5.75091
-8.65458	-3.41512	-11.4984
-3.82173	1.32642	-12.2114
6.26319	-0.73445	-3.63522
8.08826	-4.99876	8.34675
0.686943	0.434623	3.75452
-4.08059	-0.700969	-10.702
-2.39717	1.01465	-17.3798
0.40103	13.8606	-0.0536876
-4.95406	1.47597	-14.0007
-3.27415	-2.43931	4.20842
-2.76289	1.58931	-1.06753
-5.01875	-2.13077	-8.10605
-5.32199	3.22528	-6.8082
-1.22178	0.167696	3.20618
7.37521	2.56204	-2.28202
6.26423	-0.106996	3.51553
0.553588	5.52708	-5.83775
-10.7292	5.52038	-5.74379
2.80774	10.5053	0.367909
6.60919	-1.10581	-3.3883
7.48356	3.01648	-3.21404
-0.0858589	-11.3707	7.09451
6.35365	0.740241	-0.505656
-7.15066	3.89527	-0.9428
-11.945	8.74499	-1.20051
-6.80387	-3.84211	-0.188651
-6.15095	1.91663	-2.11858
-9.42054	-1.47083	2.50259
7.30114	2.10452	6.15218
7.60949	-3.03267	6.25788
2.81014	15.9249	-1.86976
6.21055	1.37503	0.714316
10.5587	-3.35695	6.50473
4.1995	-9.54554	0.874658
11.5225	-1.81222	-1.32987
8.19108	-0.0184289	6.12437
3.9657	0.359561	0.482674
-7.37798	-1.88334	-9.94412
3.41878	0.947235	1.25353
-9.95205	-6.29156	-10.9347
0.284791	-6.83686	-8.63841
-1.33273	-0.630437	3.51603
-14.8566	8.28605	-4.08945
-7.78196	-2.07832	11.5497
-8.10464	0.486377	2.21505
5.61361	2.07426	10.2259
11.2795	0.390883	-4.29378
1.52234	-7.97423	5.00206
17.9462	-2.16898	11.9715
3.44752	-0.979426	-2.23967
-7.37023	-3.78948	-6.63089
-0.50135	-5.23681	3.16611
-3.98915	0.273934	-1.06983
1.84671	-1.79897	-6.56359
-11.6713	-0.726146	-3.22771
-13.3244	7.60925	-2.35202
7.7971	-1.17861	-0.954064
0.928957	9.81427	-10.1898
-17.4384	7.02405	-1.7485
-8.77732	-4.69635	-4.20817
-12.2449	0.169282	1.773
-14.0183	-2.58476	8.42675
-11.0047	3.04034	-4.2384
6.0257	3.54454	-8.55941
7.36744	2.53601	-2.24477
1.09732	7.03093	1.51611
-0.0911461	4.65522	-9.44778
1.40633	7.79644	0.324783
3.53556	-1.75569	-4.14893
-8.0853	2.03573	1.57599
-5.41475	3.28118	4.18415
-1.61204	-1.16426	8.1651
-4.27886	1.38345	-1.19198
-16.814	5.56329	6.79252
-8.47656	2.01481	1.44015
-4.64721	1.50898	-8.70347
-9.17344	5.02051	0.952889
3.3904	-10.0665	-4.64404
-6.44859	-0.942494	2.47088
-0.0211231	-4.55382	-10.2908
3.12506	-1.18787	-4.50346
10.2939	-0.726423	3.64962
-0.53938	-12.3355	-2.89602
-1.81875	-0.520217	9.61657
1.89245	7.28778	-4.47445
11.068	2.4764	-8.77812
-3.62932	-0.701417	9.87498
-7.50186	-1.49297	-0.169753
-6.62121	3.37758	-1.38736
-0.104428	-6.6097	-7.76996
-6.79696	3.64115	-0.501958
-1.83983	11.5283	-3.17916
-8.69101	-3.17003	-4.82455
1.93137	-7.86581	8.71072
9.8034	1.01993	-5.24543
8.19432	-3.22457	2.51543
-12.437	2.75524	3.42039
-12.2245	-1.52365	-16.9707
2.80746	1.90402	2.57239
-5.29238	0.760804	-5.69449
6.4495	-3.2727	2.0834
13.3858	0.467738	0.0340096
7.61783	2.195	0.197458
0.0605156	-4.19311	0.0593427
-8.41683	6.23744	-0.660561
2.39391	8.83431	4.56803
-4.41733	0.192642	-0.666479
-9.10453	7.43625	10.6167
8.72651	1.94196	-2.18237
-8.05315	1.09055	2.44101
6.45763	2.3949	-7.11682
-10.2566	4.33464	2.88853
-8.37481	3.53657	-0.58936
5.20397	-2.70689	-8.00297
4.41255	-2.65582	-1.53218
-8.78882	5.41732	7.68536
-13.5972	3.3524	-0.302188
-5.24237	2.17749	-8.24003
5.33263	-1.46712	4.8792
8.35805	4.22848	7.95981
-4.1879	1.24825	4.86663
-0.108022	7.69627	8.92207
12.7781	-4.30997	-0.332169
3.42235	0.454261	2.48951
-0.40994	1.24853	5.91875
-1.64866	0.525485	-2.012
6.89269	-6.06418	4.28213
-7.87526	-0.676155	-2.96637
-2.40457	-10.9585	-0.824292
-1.71896	0.0895094	-19.3851
-10.9659	1.0257	7.1994
0.840552	5.50862	-7.84388
-10.3281	0.909763	4.4249
-8.60614	-3.2631	5.2448
-2.8058	0.0191235	-8.48529
-3.72115	10.338	-2.93697
6.61915	2.64002	2.2199
-7.61375	1.04344	1.12484
-6.50343	1.90276	9.5956
3.0952	1.28869	-5.26268
-6.66823	-0.749637	-0.485197
-3.63782	-1.15519	9.09131
5.2178	1.42473	-7.91465
3.74944	-1.53504	-19.5362
0.0881245	12.8503	4.71801
-4.55843	-1.0024	11.7481
15.6032	1.35721	-2.63513
1.18312	0.976612	10.7604
4.91354	-1.644	2.89321
-7.60577	5.61394	0.516317
-6.46097	-0.591596	4.28978
-1.09686	-0.159067	6.91125
6.85958	-0.788119	-6.64351
-5.51742	-2.17254	2.13618
-8.28224	3.23373	-4.06518
10.0482	-5.80761	-9.9954
5.52579	-1.78568	-16.2175
5.32432	0.849337	-1.99993
-3.06567	10.8514	-3.95558
-2.12636	-17.3906	0.783483
7.07537	-2.23883	4.76698
0.459822	4.12154	-1.60967
1.51449	-6.69744	-10.356
2.76334	-0.930561	3.71327
-8.63752	5.79545	11.5971
-6.05747	1.79658	-5.56597
-5.97155	-1.03855	0.0480722
-8.38225	-0.872011	2.44852
-4.93724	-2.20704	1.98426
-4.74216	-1.93684	-4.45779
2.72138	7.75112	3.61924
-6.1975	0.770327	-4.5515
1.57663	0.404503	2.86647
-4.91682	4.89943	-9.37992
-9.51594	1.37688	0.563469
11.6321	-1.42381	-5.97413
8.93811	4.25975	-1.18468
-5.24725	15.6233	2.67941
4.80976	3.73424	3.3392
8.09588	-2.12805	8.25159
3.81023	-0.63317	-9.08089
-10.7089	0.662235	-3.13684
-2.33841	0.944435	-17.1234
2.21303	-9.14761	-1.87977
-5.28939	3.33169	1.48202
-4.30059	-3.43298	-5.05001
-5.47533	1.42412	-0.303277
-0.751483	7.55946	0.226757
5.15747	-0.566359	4.80816
-1.96775	5.03034	-0.797488
-7.37507	2.87903	0.827527
6.91564	-1.6495	-0.674689
-2.72592	1.01819	5.64357
-9.81471	-1.26333	7.40977
7.04742	-3.74628	-9.08043
-8.20466	0.796571	-4.95682
-13.1943	-6.9423	1.21619
-3.5372	1.3112	8.05213
11.6972	0.775235	-5.8757
14.2587	-1.02882	4.25497
13.6465	7.42685	-1.88342
8.37089	-0.511039	-2.06505
4.10755	1.8003	-0.18018
5.75797	2.50456	-0.950792
17.7881	2.09313	-5.29241
11.0533	2.99013	3.60906
2.88693	7.77546	-12.2798
-13.5594	3.14697	-7.82176
-13.1152	0.0421343	-2.84
-4.17828	0.617374	-5.6667
6.68489	-2.35458	-12.284
4.97476	1.13765	-5.62868
-1.88697	-6.7966	2.70617
0.664715	3.00893	-3.6512
8.83639	3.79132	4.39864
0.559357	-4.69118	-4.85173
-2.41812	-0.958191	-13.2608
9.69779	0.429707	0.0339778
5.17934	1.62484	-1.48177
1.00645	-1.79882	5.83059
-4.26755	2.06151	-6.22291
3.682	0.971081	-6.98092
7.85897	-5.17228	5.06953
10.0235	1.41122	-3.3292
-2.06454	0.271918	4.99342
-6.74341	3.1007	-0.804301
0.591338	1.5152	9.30475
11.2232	-4.45339	5.09273
5.8998	3.75989	-6.84767
-0.922048	-5.58114	10.5099
-3.7488	-1.97308	0.0372076
-3.59949	-1.54617	-12.3071
5.96858	0.607781	1.14106
7.30535	4.42685	-0.988319
5.49803	-3.24828	2.95791
5.38135	3.30484	4.02731
7.55794	-2.97788	5.76876
16.9733	5.25328	-5.23555
9.34862	2.09381	1.90289
7.11304	-0.109916	0.369776
11.7659	2.30607	-1.01438
5.00894	1.36608	7.22492
-6.94551	-0.357682	9.40019
4.66395	-0.31655	4.66868
11.7119	5.15107	-3.91581
-3.03422	-1.51076	-11.6761
0.633095	-8.21589	5.51951
-5.76878	-1.83011	-7.28615
4.28326	-0.823852	1.71623
-8.01115	4.41148	0.941548
6.67851	-0.508778	-3.00851
5.91149	-3.39835	2.25426
8.52557	-2.69636	11.1263
-0.816082	-6.80368	4.43457
12.0316	-4.58733	7.2781
-3.74982	-2.14378	-6.13892
-5.50513	1.56152	-4.98405
11.1038	0.542834	-0.193344
15.3958	-3.39377	-1.96539
-9.25052	-2.15969	3.98379
-7.20621	2.5625	-1.57867
1.39394	-0.0709033	-10.7878
-14.6141	-1.70848	-9.38729
-11.1906	-6.35133	-2.21227
-0.163559	-4.95326	0.512308
10.6683	4.58682	4.43972
7.97409	4.90277	-4.74633
-1.21645	-0.99773	8.88656
3.85638	-10.1936	-1.20391
1.61166	8.07078	5.70221
-0.268256	6.02699	2.19289
11.3855	-0.546476	-0.375361
3.18371	-1.42581	0.141415
7.96544	2.57709	-0.149678
-17.2718	-6.16687	6.8752
10.3049	-1.53648	6.59777
-4.9433	1.03812	6.74554
-9.03891	-2.78774	8.01627
8.47232	-1.63633	12.2101
-3.97712	-2.08456	10.4735
-7.20422	2.06356	-11.039
1.92394	0.0925722	-4.81758
8.00334	-0.321726	0.206314
5.45773	4.54249	-9.46786
-1.17036	5.66136	2.28985
15.5898	-0.559027	-4.47434
8.26911	3.15143	-7.40531
-10.3937	3.88577	6.1763
0.474295	8.78097	-19.9101
5.25509	-1.50473	-2.63796
12.0042	-8.50668	3.90622
14.8019	-4.62417	7.0151
-1.94361	12.4331	7.45232
-11.4609	-2.57191	8.66799
8.63235	-1.96037	-3.03508
15.7076	-0.326047	2.08218
10.0853	3.87127	7.07878
1.24761	-4.9713	-3.5191
11.359	0.976855	12.1872
12.8142	-0.910804	-11.1407
10.3778	-0.750223	1.5172
7.294	-3.42819	6.53251
13.0898	4.8406	-3.15945
11.1285	2.53746	7.93791
10.6598	-2.81325	1.99226
5.35875	-3.02688	4.16533
-12.4915	-3.03028	3.97805
-5.13405	-1.20575	8.95819
-6.67495	0.575127	6.39069
7.54022	-1.13339	1.56765
-8.98576	4.25661	-0.135811
4.57788	1.21325	-0.390994
-6.35854	5.71393	13.8042
9.29272	-5.06379	-5.05653
8.62564	-0.294707	-2.75034
10.0092	-0.577993	1.80582
-10.8857	1.72922	0.925483
0.461521	-3.70558	4.10757
2.58812	-13.4328	15.8089
0.799219	-4.50481	0.0156249
-12.4421	5.712	-7.82194
-6.46934	-2.58049	7.50159
-7.62561	3.15664	5.34312
-1.31202	-5.60572	-6.61033
2.44833	0.865167	5.90171
-0.288834	3.25073	-5.04739
0.681494	-2.34273	-11.2489
6.40272	-1.4675	5.0554
7.9762	2.17098	-2.52493
-9.67373	-3.89454	6.63939
-15.5987	2.7818	-3.81838
1.33287	13.5213	4.85125
-7.80329	1.72893	4.68857
-8.85025	0.657064	-3.81415
2.36	-4.38651	7.46838
-5.86323	-4.3816	-14.8706
0.664095	-12.4748	-2.61302
2.74172	1.20623	3.69238
-4.06852	1.59693	4.72986
-0.600258	-8.15361	2.1755
-2.29604	9.13242	3.26849
0.546182	10.9182	-0.357111
4.80023	15.0228	-1.26885
6.79021	-0.286915	9.20558
5.23786	-3.79644	8.79807
0.731894	4.94795	-10.3371
-17.2183	4.40854	6.81151
-7.17183	3.75048	-0.862967
-8.8512	-8.33689	5.84718
0.105694	3.93414	7.01532
-11.9459	-0.539867	2.01798
-0.565074	0.137332	2.80923
-2.40606	-11.103	8.25187
-8.92206	-1.242	6.55915
-5.02417	0.59133	4.30606
16.8066	5.85853	-2.45892
12.0413	0.546013	-0.945859
-4.24585	12.3495	2.96981
6.72033	-0.245396	-10.2698
12.9609	2.57719	-13.3973
10.0621	1.92878	-13.9119
4.05013	0.0685582	17.2903
-3.06919	-0.0375308	-0.245378
-9.90671	4.04247	4.00141
-3.92371	0.81889	-8.83042
-0.25826	-1.66819	6.72406
-1.00434	0.276775	-6.21619
-0.334255	2.57481	4.86341
3.91999	-2.10439	-7.1781
-12.3438	4.10972	-0.229607
-7.18231	-3.75631	3.65187
4.23957	-12.8817	-8.74811
10.6781	-0.0368098	-5.42156
0.638619	10.8126	-1.95229
6.6218	-0.364954	1.20147
12.708	-7.63384	4.6584
0.825046	-8.63919	-9.26676
-6.29639	-2.73154	10.4859
-1.49213	-10.5295	10.121
-4.78221	-1.29211	3.0578
-7.68434	0.540754	-16.8464
-2.2648	-1.44556	15.1584
-2.57762	-0.214445	-9.92977
10.4809	1.75895	2.90919
5.30175	-1.75591	11.8291
3.77204	0.226511	13.8246
1.01847	4.84251	4.86499
-6.2158	0.479739	6.00196
6.60762	-1.77135	-2.91336
11.8801	1.45677	-4.93012
-6.8839	-1.64587	-7.98432
10.4489	-3.79855	5.99997
-3.7097	3.98275	3.37137
-17.7131	0.0817399	-1.70775
4.71674	-1.16956	4.39316
0.0946829	10.4147	-0.285495
-8.30722	-4.78592	-4.80262
-5.14641	-3.22837	-10.9526
-5.36113	-0.432051	-2.13847
1.85618	0.821239	7.76774
5.94666	2.18051	8.01808
-2.17358	-2.03481	4.70751
-2.05186	-1.38083	-10.8646
13.3467	4.60425	-6.16119
1.04783	-2.15186	1.70956
7.25366	3.0906	5.13624
6.38849	4.20647	-1.73636
2.61509	-12.3228	1.57676
7.50174	1.46323	0.0247239
-6.55607	-1.94704	1.69791
2.16479	-5.38831	-2.00741
-1.15386	-8.95592	-2.40163
-5.96879	1.71286	4.34047
1.50273	-10.9496	-7.79361
7.61894	0.273177	3.8409
-4.461	9.85733	-1.06497
-8.8783	-2.84411	-3.22757
1.48427	-0.296205	2.06462
-7.74449	0.161345	7.22547
-6.26299	0.64205	2.67718
5.51201	-1.39422	-2.41675
-3.71175	3.46197	4.41637
6.70584	-11.1219	-2.097
-4.90153	0.565798	0.847085
-1.97128	-0.53174	-4.40248
-7.59504	0.899022	-6.57547
11.5871	-3.29121	7.10015
4.25051	-2.432	7.39358
15.0771	8.82686	-1.45188
-3.47536	8.90002	-3.45464
8.46404	-1.87411	-11.0351
-11.8356	-4.83036	4.73974
-2.09793	7.89573	-1.02588
6.97203	1.26384	-1.2774
-1.14446	-0.299111	-1.78364
13.0777	3.67471	-9.25621
2.29185	9.56968	5.79344
2.22543	8.71603	1.0865
-1.1162	8.81588	2.78415
1.85033	5.93706	-4.58409
-10.2564	3.06288	5.36213
4.78629	0.868695	9.86541
-11.9266	-0.974235	2.89072
-9.34617	-4.06604	0.689665
-4.75983	0.508609	10.2727
-4.62592	-1.16021	1.73076
-5.63897	-1.41801	-10.573
-7.31538	-0.74052	-4.66678
2.54442	0.38967	7.08169
-5.22246	-4.01276	-2.35935
2.5618	-0.875573	5.44905
5.51911	-1.00865	1.5184
3.49608	-0.436916	3.80963
-5.66808	4.81755	5.30621
-3.2025	0.125259	9.48413
-5.80741	0.186305	-5.4595
-4.3669	-1.18359	0.351386
7.97122	-1.54156	0.933918
6.43366	-1.46127	3.15256
6.77842	-2.55927	4.67822
6.72358	-1.79538	2.36308
-10.4497	-0.112904	-4.30045
-13.4247	-0.648848	8.48357
-7.83506	3.35129	-1.22179
11.6228	-1.34333	1.42469
-8.31818	-4.80738	3.61699
8.26379	1.55988	0.438739
-13.9008	1.29647	-8.77131
8.24732	6.54621	15.9022
1.70668	-7.39692	-3.16406
0.715949	-7.31774	0.479242
6.36392	-0.594261	-3.65717
-0.64136	-8.786	0.0679589
13.2586	0.764983	2.2845
7.39674	-3.10368	18.5173
7.67928	3.27942	6.05599
-9.56485	0.0453791	-4.95042
-8.84838	-1.17993	-3.84337
-2.17589	-0.0835659	0.908145
-0.0795012	-11.4692	0.659245
-5.37768	-13.0786	1.128
-17.7811	-3.25891	-5.56924
-4.57807	-0.682623	6.92523
-1.19097	12.34	6.35527
